ncols 161
nrows 58
xllcorner 587861.4
yllcorner 1694589.6
cellsize 200.000000
NODATA_value -9999
-9999 -9999 -9999 -9999 -9999 -9999 -9999 -9999 -9999 -9999 -9999 -9999 -9999 -9999 -9999 -9999 -9999 -9999 -9999 -9999 -9999 -9999 -9999 -9999 -9999 -9999 -9999 -9999 -9999 -9999 -9999 -9999 -9999 -9999 -9999 -9999 -9999 -9999 -9999 -9999 -9999 -9999 -9999 -9999 -9999 -9999 749.1630249 741.1630249 743.1630249 699.1630249 653.1630249 616.1630249 600.1630249 593.1630249 585.1630249 584.1630249 582.1630249 582.1630249 578.1630249 583.1630249 -9999 -9999 -9999 -9999 -9999 -9999 -9999 -9999 -9999 -9999 -9999 -9999 -9999 -9999 -9999 -9999 -9999 -9999 -9999 -9999 -9999 -9999 -9999 -9999 -9999 -9999 -9999 -9999 -9999 -9999 -9999 -9999 -9999 -9999 -9999 -9999 -9999 -9999 -9999 -9999 -9999 -9999 -9999 -9999 -9999 -9999 -9999 -9999 -9999 -9999 -9999 -9999 -9999 -9999 -9999 -9999 -9999 -9999 -9999 -9999 -9999 -9999 -9999 -9999 -9999 -9999 -9999 -9999 -9999 -9999 -9999 -9999 -9999 -9999 -9999 -9999 -9999 -9999 -9999 -9999 -9999 -9999 -9999 -9999 -9999 -9999 -9999 -9999 -9999 -9999 -9999 -9999 -9999 -9999 -9999 -9999 -9999 -9999 -9999 -9999 -9999
-9999 -9999 -9999 -9999 -9999 -9999 -9999 -9999 -9999 -9999 -9999 -9999 -9999 -9999 -9999 -9999 -9999 -9999 -9999 -9999 -9999 -9999 -9999 -9999 -9999 -9999 -9999 -9999 -9999 -9999 -9999 -9999 -9999 -9999 -9999 -9999 -9999 -9999 -9999 -9999 -9999 -9999 -9999 -9999 -9999 -9999 719.1630249 702.1630249 687.1630249 652.1630249 652.1630249 623.1630249 607.1630249 600.1630249 588.1630249 584.1630249 582.1630249 579.1630249 575.1630249 573.1630249 -9999 -9999 -9999 -9999 -9999 -9999 -9999 -9999 -9999 -9999 -9999 -9999 -9999 -9999 -9999 -9999 -9999 -9999 -9999 -9999 -9999 -9999 -9999 -9999 -9999 -9999 -9999 -9999 -9999 -9999 -9999 -9999 -9999 -9999 -9999 -9999 -9999 -9999 -9999 -9999 -9999 -9999 -9999 -9999 -9999 -9999 -9999 -9999 -9999 -9999 -9999 -9999 -9999 -9999 -9999 -9999 -9999 -9999 -9999 -9999 -9999 -9999 -9999 -9999 -9999 -9999 -9999 -9999 -9999 -9999 -9999 -9999 -9999 -9999 -9999 -9999 -9999 -9999 -9999 -9999 -9999 -9999 -9999 -9999 -9999 -9999 -9999 -9999 -9999 -9999 -9999 -9999 -9999 -9999 -9999 -9999 -9999 -9999 -9999 -9999 -9999
-9999 -9999 -9999 -9999 -9999 -9999 -9999 -9999 -9999 -9999 -9999 -9999 -9999 -9999 -9999 -9999 -9999 -9999 -9999 -9999 -9999 -9999 -9999 -9999 -9999 -9999 -9999 -9999 -9999 -9999 759.1630249 756.1630249 753.1630249 753.1630249 751.1630249 747.1630249 747.1630249 744.1630249 739.1630249 738.1630249 729.1630249 729.1630249 725.1630249 716.1630249 707.1630249 711.1630249 702.1630249 688.1630249 678.1630249 651.1630249 626.1630249 610.1630249 601.1630249 592.1630249 586.1630249 586.1630249 581.1630249 577.1630249 572.1630249 569.1630249 562.1630249 555.1630249 556.1630249 -9999 -9999 -9999 -9999 -9999 -9999 -9999 -9999 -9999 -9999 -9999 -9999 -9999 -9999 -9999 -9999 -9999 -9999 -9999 -9999 -9999 -9999 -9999 -9999 -9999 -9999 -9999 -9999 -9999 -9999 -9999 -9999 -9999 -9999 -9999 -9999 -9999 -9999 -9999 -9999 -9999 -9999 -9999 -9999 -9999 -9999 -9999 -9999 -9999 -9999 -9999 -9999 -9999 -9999 -9999 -9999 -9999 -9999 -9999 -9999 -9999 -9999 -9999 -9999 -9999 -9999 -9999 -9999 -9999 -9999 -9999 -9999 -9999 -9999 -9999 -9999 -9999 -9999 -9999 -9999 -9999 -9999 -9999 -9999 -9999 -9999 -9999 -9999 -9999 -9999 -9999 -9999 -9999 -9999 -9999 -9999 -9999 -9999
-9999 -9999 -9999 -9999 -9999 -9999 -9999 -9999 -9999 -9999 -9999 -9999 -9999 -9999 -9999 -9999 -9999 -9999 -9999 -9999 -9999 -9999 -9999 -9999 -9999 -9999 -9999 -9999 -9999 -9999 755.1630249 751.1630249 748.1630249 751.1630249 747.1630249 743.1630249 743.1630249 738.1630249 732.1630249 731.1630249 723.1630249 714.1630249 711.1630249 701.1630249 690.1630249 688.1630249 688.1630249 688.1630249 670.1630249 651.1630249 629.1630249 612.1630249 601.1630249 593.1630249 586.1630249 581.1630249 576.1630249 571.1630249 565.1630249 566.1630249 559.1630249 551.1630249 550.1630249 -9999 -9999 -9999 -9999 -9999 -9999 -9999 -9999 -9999 -9999 -9999 -9999 -9999 -9999 -9999 -9999 -9999 -9999 -9999 -9999 -9999 -9999 -9999 -9999 -9999 -9999 -9999 -9999 -9999 -9999 -9999 -9999 -9999 -9999 -9999 -9999 -9999 -9999 -9999 -9999 -9999 -9999 -9999 -9999 -9999 -9999 -9999 -9999 -9999 -9999 -9999 -9999 -9999 -9999 -9999 -9999 -9999 -9999 -9999 -9999 -9999 -9999 -9999 -9999 -9999 -9999 -9999 -9999 -9999 -9999 -9999 -9999 -9999 -9999 -9999 -9999 -9999 -9999 -9999 -9999 -9999 -9999 -9999 -9999 -9999 -9999 -9999 -9999 -9999 -9999 -9999 -9999 -9999 -9999 -9999 -9999 -9999 -9999
-9999 -9999 -9999 -9999 -9999 -9999 -9999 -9999 -9999 -9999 -9999 -9999 -9999 -9999 -9999 -9999 -9999 -9999 -9999 -9999 -9999 -9999 -9999 -9999 -9999 -9999 775.1630249 770.1630249 764.1630249 759.1630249 755.1630249 751.1630249 746.1630249 744.1630249 739.1630249 733.1630249 732.1630249 732.1630249 725.1630249 724.1630249 716.1630249 707.1630249 707.1630249 700.1630249 690.1630249 678.1630249 664.1630249 661.1630249 650.1630249 631.1630249 614.1630249 614.1630249 601.1630249 592.1630249 586.1630249 581.1630249 576.1630249 570.1630249 564.1630249 558.1630249 550.1630249 546.1630249 540.1630249 534.1630249 539.1630249 -9999 -9999 -9999 -9999 -9999 -9999 -9999 -9999 -9999 -9999 -9999 -9999 -9999 -9999 -9999 -9999 -9999 -9999 -9999 -9999 -9999 -9999 -9999 -9999 -9999 -9999 -9999 -9999 -9999 -9999 -9999 -9999 -9999 -9999 -9999 -9999 -9999 -9999 -9999 -9999 -9999 -9999 -9999 -9999 -9999 -9999 -9999 -9999 -9999 -9999 -9999 -9999 -9999 -9999 -9999 -9999 -9999 -9999 -9999 -9999 -9999 -9999 -9999 -9999 -9999 -9999 -9999 -9999 -9999 -9999 -9999 -9999 -9999 -9999 -9999 -9999 -9999 -9999 -9999 -9999 -9999 -9999 -9999 -9999 -9999 -9999 -9999 -9999 -9999 -9999 -9999 -9999 -9999 -9999 -9999 -9999
-9999 -9999 -9999 -9999 -9999 -9999 -9999 -9999 -9999 -9999 -9999 -9999 -9999 -9999 -9999 -9999 -9999 -9999 -9999 -9999 -9999 -9999 -9999 -9999 780.1630249 774.1630249 768.1630249 763.1630249 758.1630249 758.1630249 754.1630249 751.1630249 746.1630249 742.1630249 736.1630249 729.1630249 726.1630249 719.1630249 712.1630249 709.1630249 701.1630249 700.1630249 700.1630249 692.1630249 686.1630249 671.1630249 658.1630249 651.1630249 642.1630249 628.1630249 614.1630249 601.1630249 593.1630249 586.1630249 581.1630249 581.1630249 576.1630249 570.1630249 564.1630249 557.1630249 550.1630249 544.1630249 537.1630249 531.1630249 528.1630249 520.1630249 513.1630249 -9999 -9999 -9999 -9999 -9999 -9999 -9999 -9999 -9999 -9999 -9999 -9999 -9999 -9999 -9999 -9999 -9999 -9999 -9999 -9999 -9999 -9999 -9999 -9999 -9999 -9999 -9999 -9999 -9999 -9999 -9999 -9999 -9999 -9999 -9999 -9999 -9999 -9999 -9999 -9999 -9999 -9999 -9999 -9999 -9999 -9999 -9999 -9999 -9999 -9999 -9999 -9999 -9999 -9999 -9999 -9999 -9999 -9999 -9999 -9999 -9999 -9999 -9999 -9999 -9999 -9999 -9999 -9999 -9999 -9999 -9999 -9999 -9999 -9999 -9999 -9999 -9999 -9999 -9999 -9999 -9999 -9999 -9999 -9999 -9999 -9999 -9999 -9999 -9999 -9999 -9999 -9999 -9999 -9999
-9999 -9999 -9999 -9999 -9999 -9999 -9999 -9999 -9999 -9999 -9999 -9999 -9999 -9999 -9999 -9999 -9999 -9999 -9999 -9999 -9999 -9999 -9999 -9999 779.1630249 774.1630249 768.1630249 762.1630249 756.1630249 751.1630249 750.1630249 745.1630249 739.1630249 740.1630249 733.1630249 729.1630249 721.1630249 713.1630249 712.1630249 706.1630249 700.1630249 694.1630249 684.1630249 672.1630249 664.1630249 651.1630249 644.1630249 650.1630249 639.1630249 627.1630249 613.1630249 601.1630249 593.1630249 588.1630249 583.1630249 576.1630249 570.1630249 564.1630249 557.1630249 550.1630249 550.1630249 543.1630249 536.1630249 528.1630249 523.1630249 515.1630249 508.16299438 -9999 -9999 -9999 -9999 -9999 -9999 -9999 -9999 -9999 -9999 -9999 -9999 -9999 -9999 -9999 -9999 -9999 -9999 -9999 -9999 -9999 -9999 -9999 -9999 -9999 -9999 -9999 -9999 -9999 -9999 -9999 -9999 -9999 -9999 -9999 -9999 -9999 -9999 -9999 -9999 -9999 -9999 -9999 -9999 -9999 -9999 -9999 -9999 -9999 -9999 -9999 -9999 -9999 -9999 -9999 -9999 -9999 -9999 -9999 -9999 -9999 -9999 -9999 -9999 -9999 -9999 -9999 -9999 -9999 -9999 -9999 -9999 -9999 -9999 -9999 -9999 -9999 -9999 -9999 -9999 -9999 -9999 -9999 -9999 -9999 -9999 -9999 -9999 -9999 -9999 -9999 -9999 -9999 -9999
-9999 -9999 -9999 -9999 -9999 -9999 -9999 -9999 -9999 -9999 -9999 -9999 -9999 -9999 -9999 -9999 -9999 -9999 -9999 -9999 -9999 789.1630249 784.1630249 778.1630249 773.1630249 773.1630249 767.1630249 762.1630249 756.1630249 751.1630249 748.1630249 743.1630249 739.1630249 732.1630249 725.1630249 718.1630249 709.1630249 701.1630249 706.1630249 700.1630249 694.1630249 690.1630249 679.1630249 667.1630249 660.1630249 650.1630249 643.1630249 636.1630249 626.1630249 615.1630249 605.1630249 605.1630249 596.1630249 591.1630249 585.1630249 577.1630249 571.1630249 564.1630249 557.1630249 550.1630249 544.1630249 536.1630249 527.1630249 518.1630249 512.1630249 512.1630249 508.16299438 501.16299438 495.16299438 -9999 -9999 -9999 -9999 -9999 -9999 -9999 -9999 -9999 -9999 -9999 -9999 -9999 -9999 -9999 -9999 -9999 -9999 -9999 -9999 -9999 -9999 -9999 -9999 -9999 -9999 -9999 -9999 -9999 -9999 -9999 -9999 -9999 -9999 -9999 -9999 -9999 -9999 -9999 -9999 -9999 -9999 -9999 -9999 -9999 -9999 -9999 -9999 -9999 -9999 -9999 -9999 -9999 -9999 -9999 -9999 -9999 -9999 -9999 -9999 -9999 -9999 -9999 -9999 -9999 -9999 -9999 -9999 -9999 -9999 -9999 -9999 -9999 -9999 -9999 -9999 -9999 -9999 -9999 -9999 -9999 -9999 -9999 -9999 -9999 -9999 -9999 -9999 -9999 -9999 -9999 -9999
-9999 -9999 -9999 -9999 -9999 -9999 -9999 -9999 -9999 -9999 -9999 -9999 -9999 -9999 -9999 -9999 -9999 -9999 -9999 -9999 -9999 789.1630249 784.1630249 778.1630249 773.1630249 767.1630249 761.1630249 756.1630249 751.1630249 751.1630249 746.1630249 742.1630249 738.1630249 731.1630249 724.1630249 716.1630249 708.1630249 700.1630249 695.1630249 689.1630249 680.1630249 674.1630249 662.1630249 662.1630249 657.1630249 650.1630249 643.1630249 634.1630249 625.1630249 616.1630249 607.1630249 601.1630249 594.1630249 588.1630249 581.1630249 572.1630249 572.1630249 566.1630249 557.1630249 551.1630249 546.1630249 536.1630249 527.1630249 518.1630249 509.16299438 501.16299438 500.16299438 492.16299438 484.16299438 -9999 -9999 -9999 -9999 -9999 -9999 -9999 -9999 -9999 -9999 -9999 -9999 -9999 -9999 -9999 -9999 -9999 -9999 -9999 -9999 -9999 -9999 -9999 -9999 -9999 -9999 -9999 -9999 -9999 -9999 -9999 -9999 -9999 -9999 -9999 -9999 -9999 -9999 -9999 -9999 -9999 -9999 -9999 -9999 -9999 -9999 -9999 -9999 -9999 -9999 -9999 -9999 -9999 -9999 -9999 -9999 -9999 -9999 -9999 -9999 -9999 -9999 -9999 -9999 -9999 -9999 -9999 -9999 -9999 -9999 -9999 -9999 -9999 -9999 -9999 -9999 -9999 -9999 -9999 -9999 -9999 -9999 -9999 -9999 -9999 -9999 -9999 -9999 -9999 -9999 -9999 -9999
-9999 -9999 -9999 -9999 -9999 -9999 -9999 -9999 -9999 -9999 -9999 -9999 -9999 -9999 -9999 -9999 -9999 801.1630249 798.1630249 794.1630249 789.1630249 789.1630249 784.1630249 778.1630249 772.1630249 767.1630249 761.1630249 756.1630249 751.1630249 746.1630249 741.1630249 736.1630249 730.1630249 723.1630249 723.1630249 716.1630249 708.1630249 700.1630249 693.1630249 686.1630249 677.1630249 670.1630249 660.1630249 651.1630249 646.1630249 639.1630249 633.1630249 625.1630249 625.1630249 617.1630249 609.1630249 604.1630249 597.1630249 591.1630249 584.1630249 574.1630249 567.1630249 561.1630249 554.1630249 550.1630249 538.1630249 538.1630249 529.1630249 518.1630249 508.16299438 500.16299438 496.16299438 489.16299438 480.16299438 475.16299438 466.16299438 -9999 -9999 -9999 -9999 -9999 -9999 -9999 -9999 -9999 -9999 -9999 -9999 -9999 -9999 -9999 -9999 -9999 -9999 -9999 -9999 -9999 -9999 -9999 -9999 -9999 -9999 -9999 -9999 -9999 -9999 -9999 -9999 -9999 -9999 -9999 -9999 -9999 -9999 -9999 -9999 -9999 -9999 -9999 -9999 -9999 -9999 -9999 -9999 -9999 -9999 -9999 -9999 -9999 -9999 -9999 -9999 -9999 -9999 -9999 -9999 -9999 -9999 -9999 -9999 -9999 -9999 -9999 -9999 -9999 -9999 -9999 -9999 -9999 -9999 -9999 -9999 -9999 -9999 -9999 -9999 -9999 -9999 -9999 -9999 -9999 -9999 -9999 -9999 -9999 -9999
-9999 -9999 -9999 -9999 -9999 -9999 -9999 -9999 -9999 -9999 -9999 -9999 -9999 -9999 -9999 -9999 -9999 803.1630249 799.1630249 795.1630249 789.1630249 784.1630249 778.1630249 772.1630249 766.1630249 766.1630249 761.1630249 756.1630249 751.1630249 746.1630249 740.1630249 735.1630249 730.1630249 723.1630249 716.1630249 708.1630249 701.1630249 692.1630249 684.1630249 684.1630249 677.1630249 668.1630249 659.1630249 650.1630249 644.1630249 637.1630249 631.1630249 624.1630249 617.1630249 610.1630249 605.1630249 601.1630249 600.1630249 594.1630249 584.1630249 576.1630249 569.1630249 561.1630249 556.1630249 551.1630249 541.1630249 530.1630249 519.1630249 509.16299438 501.16299438 494.16299438 494.16299438 487.16299438 478.16299438 471.16299438 461.16299438 -9999 -9999 -9999 -9999 -9999 -9999 -9999 -9999 -9999 -9999 -9999 -9999 -9999 -9999 -9999 -9999 -9999 -9999 -9999 -9999 -9999 -9999 -9999 -9999 -9999 -9999 -9999 -9999 -9999 -9999 -9999 -9999 -9999 -9999 -9999 -9999 -9999 -9999 -9999 -9999 -9999 -9999 -9999 -9999 -9999 -9999 -9999 -9999 -9999 -9999 -9999 -9999 -9999 -9999 -9999 -9999 -9999 -9999 -9999 -9999 -9999 -9999 -9999 -9999 -9999 -9999 -9999 -9999 -9999 -9999 -9999 -9999 -9999 -9999 -9999 -9999 -9999 -9999 -9999 -9999 -9999 -9999 -9999 -9999 -9999 -9999 -9999 -9999 -9999 -9999
-9999 -9999 -9999 -9999 -9999 -9999 -9999 -9999 -9999 -9999 -9999 -9999 -9999 -9999 -9999 808.1630249 804.1630249 803.1630249 800.1630249 796.1630249 790.1630249 784.1630249 778.1630249 772.1630249 766.1630249 761.1630249 756.1630249 751.1630249 745.1630249 740.1630249 740.1630249 735.1630249 729.1630249 723.1630249 716.1630249 708.1630249 701.1630249 692.1630249 683.1630249 675.1630249 667.1630249 658.1630249 651.1630249 643.1630249 643.1630249 636.1630249 630.1630249 623.1630249 615.1630249 610.1630249 605.1630249 601.1630249 595.1630249 588.1630249 578.1630249 570.1630249 563.1630249 562.1630249 556.1630249 550.1630249 542.1630249 531.1630249 520.1630249 509.16299438 501.16299438 495.16299438 487.16299438 478.16299438 469.16299438 459.16299438 459.16299438 451.16299438 -9999 -9999 -9999 -9999 -9999 -9999 -9999 -9999 -9999 -9999 -9999 -9999 -9999 -9999 -9999 -9999 -9999 -9999 -9999 -9999 -9999 -9999 -9999 -9999 -9999 -9999 -9999 -9999 -9999 -9999 -9999 -9999 -9999 -9999 -9999 -9999 -9999 -9999 -9999 -9999 -9999 -9999 -9999 -9999 -9999 -9999 -9999 -9999 -9999 -9999 -9999 -9999 -9999 -9999 -9999 -9999 -9999 -9999 -9999 -9999 -9999 -9999 -9999 -9999 -9999 -9999 -9999 -9999 -9999 -9999 -9999 -9999 -9999 -9999 -9999 -9999 -9999 -9999 -9999 -9999 -9999 -9999 -9999 -9999 -9999 -9999 -9999 -9999 -9999
-9999 -9999 -9999 -9999 -9999 -9999 -9999 -9999 -9999 -9999 -9999 -9999 -9999 -9999 813.1630249 809.1630249 805.1630249 801.1630249 796.1630249 791.1630249 785.1630249 785.1630249 778.1630249 772.1630249 766.1630249 761.1630249 756.1630249 751.1630249 745.1630249 740.1630249 734.1630249 729.1630249 722.1630249 716.1630249 708.1630249 708.1630249 701.1630249 692.1630249 683.1630249 674.1630249 666.1630249 658.1630249 651.1630249 643.1630249 637.1630249 630.1630249 622.1630249 615.1630249 615.1630249 609.1630249 603.1630249 601.1630249 595.1630249 588.1630249 580.1630249 572.1630249 564.1630249 557.1630249 550.1630249 544.1630249 532.1630249 521.1630249 521.1630249 509.16299438 501.16299438 495.16299438 488.16299438 479.16299438 469.16299438 459.16299438 450.16299438 442.16299438 435.16299438 428.86999512 -9999 -9999 -9999 -9999 -9999 -9999 -9999 -9999 -9999 -9999 -9999 -9999 -9999 -9999 -9999 -9999 -9999 -9999 -9999 -9999 -9999 -9999 -9999 -9999 -9999 -9999 -9999 -9999 -9999 -9999 -9999 -9999 -9999 -9999 -9999 -9999 -9999 -9999 -9999 -9999 -9999 -9999 -9999 -9999 -9999 -9999 -9999 -9999 -9999 -9999 -9999 -9999 -9999 -9999 -9999 -9999 -9999 -9999 -9999 -9999 -9999 -9999 -9999 -9999 -9999 -9999 -9999 -9999 -9999 -9999 -9999 -9999 -9999 -9999 -9999 -9999 -9999 -9999 -9999 -9999 -9999 -9999 -9999 -9999 -9999 -9999 -9999
-9999 -9999 -9999 -9999 -9999 -9999 -9999 -9999 -9999 -9999 -9999 -9999 -9999 -9999 814.1630249 810.1630249 805.1630249 801.1630249 796.1630249 791.1630249 785.1630249 779.1630249 773.1630249 766.1630249 761.1630249 756.1630249 756.1630249 751.1630249 745.1630249 740.1630249 734.1630249 729.1630249 722.1630249 715.1630249 708.1630249 701.1630249 692.1630249 683.1630249 674.1630249 665.1630249 665.1630249 657.1630249 650.1630249 644.1630249 638.1630249 630.1630249 623.1630249 615.1630249 607.1630249 601.1630249 599.1630249 596.1630249 589.1630249 589.1630249 581.1630249 573.1630249 566.1630249 557.1630249 551.1630249 544.1630249 534.1630249 524.1630249 510.16299438 501.16299438 500.16299438 490.16299438 490.16299438 480.16299438 469.16299438 460.16299438 450.16299438 441.16299438 433.16299438 425.86999512 -9999 -9999 -9999 -9999 -9999 -9999 -9999 -9999 -9999 -9999 -9999 -9999 -9999 -9999 -9999 -9999 -9999 -9999 -9999 -9999 -9999 -9999 -9999 -9999 -9999 -9999 -9999 -9999 -9999 -9999 -9999 -9999 -9999 -9999 -9999 -9999 -9999 -9999 -9999 -9999 -9999 -9999 -9999 -9999 -9999 -9999 -9999 -9999 -9999 -9999 -9999 -9999 -9999 -9999 -9999 -9999 -9999 -9999 -9999 -9999 -9999 -9999 -9999 -9999 -9999 -9999 -9999 -9999 -9999 -9999 -9999 -9999 -9999 -9999 -9999 -9999 -9999 -9999 -9999 -9999 -9999 -9999 -9999 -9999 -9999 -9999 -9999
-9999 -9999 -9999 -9999 -9999 -9999 -9999 -9999 -9999 -9999 -9999 -9999 820.1630249 815.1630249 810.1630249 805.1630249 801.1630249 796.1630249 796.1630249 790.1630249 785.1630249 779.1630249 773.1630249 767.1630249 761.1630249 756.1630249 751.1630249 745.1630249 740.1630249 735.1630249 729.1630249 728.1630249 722.1630249 715.1630249 708.1630249 701.1630249 692.1630249 683.1630249 674.1630249 665.1630249 657.1630249 651.1630249 645.1630249 639.1630249 639.1630249 631.1630249 624.1630249 617.1630249 608.1630249 603.1630249 600.1630249 595.1630249 590.1630249 583.1630249 575.1630249 568.1630249 560.1630249 554.1630249 554.1630249 546.1630249 538.1630249 527.1630249 513.1630249 505.16299438 500.16299438 492.16299438 482.16299438 471.16299438 460.16299438 451.16299438 442.16299438 441.16299438 433.16299438 425.86999512 418.86999512 412.86999512 -9999 -9999 -9999 -9999 -9999 -9999 -9999 -9999 -9999 -9999 -9999 -9999 -9999 -9999 -9999 -9999 -9999 -9999 -9999 -9999 -9999 -9999 -9999 -9999 -9999 -9999 -9999 -9999 -9999 -9999 -9999 -9999 -9999 -9999 -9999 -9999 17.87000084 22.87000084 23.87000084 25.87000084 30.87000084 -9999 -9999 -9999 -9999 -9999 -9999 -9999 -9999 -9999 -9999 -9999 -9999 -9999 -9999 -9999 -9999 -9999 -9999 -9999 -9999 -9999 -9999 -9999 -9999 -9999 -9999 -9999 -9999 -9999 -9999 -9999 -9999 -9999 -9999 -9999 -9999 -9999 -9999 -9999 -9999 -9999 -9999 -9999 -9999
-9999 -9999 -9999 -9999 -9999 -9999 -9999 -9999 -9999 -9999 -9999 -9999 820.1630249 815.1630249 810.1630249 805.1630249 801.1630249 796.1630249 790.1630249 785.1630249 779.1630249 773.1630249 773.1630249 767.1630249 761.1630249 756.1630249 751.1630249 745.1630249 740.1630249 735.1630249 729.1630249 722.1630249 715.1630249 708.1630249 701.1630249 692.1630249 692.1630249 683.1630249 675.1630249 666.1630249 659.1630249 654.1630249 647.1630249 641.1630249 635.1630249 626.1630249 619.1630249 612.1630249 605.1630249 605.1630249 601.1630249 596.1630249 591.1630249 583.1630249 576.1630249 570.1630249 562.1630249 556.1630249 551.1630249 541.1630249 530.1630249 519.1630249 508.16299438 508.16299438 500.16299438 492.16299438 482.16299438 471.16299438 460.16299438 451.16299438 442.16299438 434.16299438 426.86999512 417.86999512 410.86999512 404.86999512 -9999 -9999 -9999 -9999 -9999 -9999 -9999 -9999 -9999 -9999 -9999 -9999 -9999 -9999 -9999 -9999 -9999 -9999 -9999 -9999 -9999 -9999 -9999 -9999 -9999 -9999 -9999 -9999 -9999 -9999 -9999 -9999 -9999 -9999 -9999 -9999 16.87000084 20.87000084 21.87000084 23.87000084 26.87000084 -9999 -9999 -9999 -9999 -9999 -9999 -9999 -9999 -9999 -9999 -9999 -9999 -9999 -9999 -9999 -9999 -9999 -9999 -9999 -9999 -9999 -9999 -9999 -9999 -9999 -9999 -9999 -9999 -9999 -9999 -9999 -9999 -9999 -9999 -9999 -9999 -9999 -9999 -9999 -9999 -9999 -9999 -9999 -9999
-9999 -9999 -9999 -9999 -9999 -9999 -9999 -9999 -9999 -9999 825.1630249 820.1630249 815.1630249 810.1630249 810.1630249 805.1630249 801.1630249 796.1630249 791.1630249 785.1630249 779.1630249 773.1630249 767.1630249 761.1630249 756.1630249 751.1630249 745.1630249 745.1630249 740.1630249 735.1630249 729.1630249 722.1630249 715.1630249 708.1630249 701.1630249 692.1630249 684.1630249 675.1630249 668.1630249 660.1630249 660.1630249 655.1630249 650.1630249 644.1630249 637.1630249 628.1630249 621.1630249 614.1630249 606.1630249 601.1630249 597.1630249 592.1630249 586.1630249 578.1630249 578.1630249 571.1630249 563.1630249 557.1630249 550.1630249 542.1630249 531.1630249 520.1630249 509.16299438 501.16299438 491.16299438 482.16299438 471.16299438 471.16299438 460.16299438 450.16299438 442.16299438 435.16299438 428.86999512 419.86999512 412.86999512 406.86999512 399.86999512 398.86999512 400.86999512 -9999 -9999 -9999 -9999 -9999 -9999 -9999 -9999 -9999 -9999 -9999 -9999 -9999 -9999 -9999 -9999 -9999 -9999 -9999 -9999 -9999 -9999 -9999 -9999 -9999 -9999 -9999 -9999 -9999 -9999 -9999 93.87000275 16.87000084 16.87000084 16.87000084 18.87000084 19.87000084 24.87000084 25.87000084 30.87000084 30.87000084 30.87000084 31.87000084 30.87000084 30.87000084 -9999 -9999 -9999 -9999 -9999 -9999 -9999 -9999 -9999 -9999 -9999 -9999 -9999 -9999 -9999 -9999 -9999 -9999 -9999 -9999 -9999 -9999 -9999 -9999 -9999 -9999 -9999 -9999 -9999 -9999 -9999 -9999 -9999 -9999 -9999 -9999 -9999
-9999 -9999 -9999 -9999 -9999 -9999 -9999 -9999 -9999 -9999 824.1630249 820.1630249 814.1630249 810.1630249 805.1630249 801.1630249 796.1630249 791.1630249 791.1630249 785.1630249 780.1630249 774.1630249 767.1630249 762.1630249 756.1630249 751.1630249 745.1630249 740.1630249 735.1630249 729.1630249 723.1630249 716.1630249 716.1630249 708.1630249 701.1630249 692.1630249 684.1630249 676.1630249 668.1630249 661.1630249 655.1630249 651.1630249 645.1630249 638.1630249 630.1630249 630.1630249 623.1630249 614.1630249 608.1630249 604.1630249 598.1630249 593.1630249 587.1630249 579.1630249 572.1630249 565.1630249 558.1630249 550.1630249 542.1630249 542.1630249 532.1630249 520.1630249 510.16299438 501.16299438 491.16299438 482.16299438 472.16299438 460.16299438 451.16299438 446.16299438 437.16299438 431.86999512 431.86999512 422.86999512 415.86999512 410.86999512 402.86999512 400.86999512 400.86999512 -9999 -9999 -9999 -9999 -9999 -9999 -9999 -9999 -9999 -9999 -9999 -9999 -9999 -9999 -9999 -9999 -9999 -9999 -9999 -9999 -9999 -9999 -9999 -9999 -9999 -9999 -9999 -9999 -9999 -9999 -9999 16.87000084 16.87000084 16.87000084 16.87000084 16.87000084 19.87000084 20.87000084 22.87000084 27.87000084 28.87000084 29.87000084 29.87000084 29.87000084 29.87000084 -9999 -9999 -9999 -9999 -9999 -9999 -9999 -9999 -9999 -9999 -9999 -9999 -9999 -9999 -9999 -9999 -9999 -9999 -9999 -9999 -9999 -9999 -9999 -9999 -9999 -9999 -9999 -9999 -9999 -9999 -9999 -9999 -9999 -9999 -9999 -9999 -9999
-9999 -9999 -9999 -9999 -9999 -9999 -9999 -9999 829.1630249 824.1630249 824.1630249 819.1630249 814.1630249 810.1630249 805.1630249 801.1630249 796.1630249 791.1630249 786.1630249 780.1630249 774.1630249 768.1630249 762.1630249 762.1630249 756.1630249 751.1630249 745.1630249 740.1630249 735.1630249 729.1630249 723.1630249 716.1630249 708.1630249 701.1630249 692.1630249 684.1630249 684.1630249 676.1630249 668.1630249 661.1630249 656.1630249 651.1630249 645.1630249 639.1630249 631.1630249 624.1630249 618.1630249 610.1630249 605.1630249 601.1630249 600.1630249 595.1630249 588.1630249 580.1630249 573.1630249 565.1630249 558.1630249 550.1630249 542.1630249 532.1630249 521.1630249 510.16299438 500.16299438 500.16299438 492.16299438 483.16299438 473.16299438 462.16299438 455.16299438 450.16299438 440.16299438 434.86999512 428.86999512 419.86999512 413.86999512 405.86999512 401.86999512 401.86999512 398.86999512 390.86999512 379.86999512 377.86999512 370.86999512 -9999 -9999 -9999 -9999 -9999 -9999 -9999 -9999 -9999 -9999 -9999 -9999 -9999 -9999 -9999 -9999 -9999 -9999 -9999 -9999 132.86999512 248.86999512 206.86999512 153.86999512 178.86999512 90.87000275 55.86999893 16.87000084 16.87000084 16.87000084 16.87000084 16.87000084 17.87000084 18.87000084 18.87000084 23.87000084 25.87000084 26.87000084 29.87000084 28.87000084 28.87000084 29.87000084 28.87000084 29.87000084 28.87000084 -9999 -9999 -9999 -9999 -9999 -9999 -9999 -9999 -9999 -9999 -9999 -9999 -9999 -9999 -9999 -9999 -9999 -9999 -9999 -9999 -9999 -9999 -9999 -9999 -9999 -9999 -9999 -9999 -9999 -9999 -9999 -9999 -9999
-9999 -9999 -9999 -9999 -9999 -9999 -9999 -9999 828.1630249 823.1630249 818.1630249 814.1630249 809.1630249 805.1630249 805.1630249 801.1630249 796.1630249 792.1630249 787.1630249 781.1630249 775.1630249 768.1630249 762.1630249 756.1630249 751.1630249 745.1630249 740.1630249 734.1630249 734.1630249 728.1630249 723.1630249 715.1630249 708.1630249 701.1630249 693.1630249 684.1630249 676.1630249 668.1630249 661.1630249 656.1630249 651.1630249 651.1630249 645.1630249 639.1630249 632.1630249 625.1630249 618.1630249 612.1630249 606.1630249 601.1630249 595.1630249 588.1630249 581.1630249 573.1630249 566.1630249 565.1630249 558.1630249 551.1630249 542.1630249 533.1630249 523.1630249 511.16299438 501.16299438 495.16299438 484.16299438 475.16299438 466.16299438 456.16299438 456.16299438 451.16299438 444.16299438 437.86999512 428.86999512 422.86999512 416.86999512 408.86999512 404.86999512 400.86999512 389.86999512 379.86999512 368.86999512 369.86999512 361.86999512 -9999 -9999 -9999 -9999 -9999 -9999 -9999 -9999 -9999 -9999 -9999 -9999 -9999 -9999 -9999 -9999 -9999 -9999 -9999 -9999 16.87000084 99.87000275 61.86999893 90.87000275 16.87000084 16.87000084 16.87000084 16.87000084 16.87000084 16.87000084 16.87000084 16.87000084 16.87000084 16.87000084 16.87000084 21.87000084 23.87000084 24.87000084 28.87000084 28.87000084 28.87000084 28.87000084 27.87000084 28.87000084 28.87000084 -9999 -9999 -9999 -9999 -9999 -9999 -9999 -9999 -9999 -9999 -9999 -9999 -9999 -9999 -9999 -9999 -9999 -9999 -9999 -9999 -9999 -9999 -9999 -9999 -9999 -9999 -9999 -9999 -9999 -9999 -9999 -9999 -9999
-9999 -9999 -9999 -9999 -9999 -9999 837.1630249 833.1630249 828.1630249 823.1630249 818.1630249 813.1630249 809.1630249 804.1630249 801.1630249 797.1630249 792.1630249 787.1630249 781.1630249 781.1630249 776.1630249 769.1630249 763.1630249 757.1630249 751.1630249 745.1630249 739.1630249 734.1630249 728.1630249 721.1630249 715.1630249 708.1630249 701.1630249 701.1630249 693.1630249 684.1630249 676.1630249 668.1630249 661.1630249 656.1630249 651.1630249 645.1630249 639.1630249 632.1630249 625.1630249 619.1630249 619.1630249 612.1630249 606.1630249 601.1630249 595.1630249 588.1630249 581.1630249 573.1630249 566.1630249 558.1630249 551.1630249 542.1630249 533.1630249 533.1630249 524.1630249 513.1630249 505.16299438 500.16299438 487.16299438 478.16299438 468.16299438 457.16299438 450.16299438 445.16299438 438.86999512 432.86999512 424.86999512 424.86999512 418.86999512 411.86999512 406.86999512 401.86999512 391.86999512 380.86999512 371.86999512 360.86999512 355.86999512 352.86999512 354.86999512 354.86999512 362.86999512 358.86999512 348.86999512 336.86999512 308.86999512 275.86999512 256.86999512 203.86999512 151.86999512 120.87000275 61.86999893 16.87000084 16.87000084 16.87000084 16.87000084 16.87000084 16.87000084 16.87000084 16.87000084 16.87000084 16.87000084 16.87000084 16.87000084 16.87000084 16.87000084 16.87000084 16.87000084 16.87000084 16.87000084 16.87000084 16.87000084 16.87000084 17.87000084 19.87000084 24.87000084 25.87000084 27.87000084 27.87000084 27.87000084 26.87000084 27.87000084 27.87000084 27.87000084 -9999 -9999 -9999 -9999 -9999 -9999 -9999 -9999 -9999 -9999 -9999 -9999 -9999 -9999 -9999 -9999 -9999 -9999 -9999 -9999 -9999 -9999 -9999 -9999 -9999 -9999 -9999 -9999 -9999 -9999 -9999 -9999
-9999 -9999 -9999 -9999 -9999 -9999 832.1630249 827.1630249 822.1630249 818.1630249 818.1630249 813.1630249 809.1630249 804.1630249 801.1630249 797.1630249 793.1630249 788.1630249 782.1630249 777.1630249 770.1630249 763.1630249 757.1630249 751.1630249 751.1630249 745.1630249 739.1630249 733.1630249 727.1630249 721.1630249 714.1630249 707.1630249 701.1630249 693.1630249 685.1630249 677.1630249 669.1630249 669.1630249 662.1630249 656.1630249 651.1630249 645.1630249 639.1630249 632.1630249 626.1630249 619.1630249 613.1630249 607.1630249 601.1630249 594.1630249 588.1630249 588.1630249 581.1630249 573.1630249 566.1630249 558.1630249 551.1630249 543.1630249 534.1630249 526.1630249 517.1630249 508.16299438 501.16299438 491.16299438 491.16299438 481.16299438 468.16299438 459.16299438 451.16299438 445.16299438 439.86999512 433.86999512 425.86999512 418.86999512 412.86999512 406.86999512 401.86999512 393.86999512 392.86999512 383.86999512 371.86999512 363.86999512 356.86999512 352.86999512 351.86999512 351.86999512 353.86999512 349.86999512 328.86999512 300.86999512 270.86999512 270.86999512 237.86999512 195.86999512 148.86999512 98.87000275 50.86999893 16.87000084 16.87000084 16.87000084 16.87000084 16.87000084 16.87000084 16.87000084 16.87000084 16.87000084 16.87000084 16.87000084 16.87000084 16.87000084 16.87000084 16.87000084 16.87000084 16.87000084 16.87000084 16.87000084 16.87000084 16.87000084 16.87000084 16.87000084 20.87000084 22.87000084 23.87000084 26.87000084 26.87000084 26.87000084 26.87000084 26.87000084 25.87000084 -9999 -9999 -9999 -9999 -9999 -9999 -9999 -9999 -9999 -9999 -9999 -9999 -9999 -9999 -9999 -9999 -9999 -9999 -9999 -9999 -9999 -9999 -9999 -9999 -9999 -9999 -9999 -9999 -9999 -9999 -9999 -9999
-9999 -9999 -9999 -9999 -9999 -9999 831.1630249 827.1630249 822.1630249 818.1630249 813.1630249 809.1630249 804.1630249 801.1630249 798.1630249 797.1630249 794.1630249 789.1630249 783.1630249 777.1630249 771.1630249 764.1630249 757.1630249 751.1630249 744.1630249 738.1630249 733.1630249 726.1630249 718.1630249 719.1630249 712.1630249 705.1630249 701.1630249 693.1630249 685.1630249 677.1630249 669.1630249 662.1630249 656.1630249 651.1630249 645.1630249 639.1630249 639.1630249 632.1630249 626.1630249 619.1630249 613.1630249 607.1630249 601.1630249 594.1630249 587.1630249 580.1630249 573.1630249 565.1630249 558.1630249 558.1630249 551.1630249 543.1630249 535.1630249 527.1630249 517.1630249 508.16299438 500.16299438 492.16299438 483.16299438 473.16299438 462.16299438 455.16299438 450.16299438 447.16299438 441.86999512 433.86999512 425.86999512 418.86999512 411.86999512 406.86999512 401.86999512 393.86999512 384.86999512 376.86999512 366.86999512 359.86999512 359.86999512 353.86999512 352.86999512 351.86999512 350.86999512 345.86999512 329.86999512 303.86999512 275.86999512 247.86999512 201.86999512 161.86999512 98.87000275 50.86999893 50.86999893 16.87000084 16.87000084 16.87000084 16.87000084 16.87000084 16.87000084 16.87000084 16.87000084 16.87000084 16.87000084 16.87000084 16.87000084 16.87000084 16.87000084 16.87000084 16.87000084 16.87000084 16.87000084 16.87000084 16.87000084 16.87000084 16.87000084 16.87000084 18.87000084 20.87000084 21.87000084 25.87000084 25.87000084 25.87000084 25.87000084 25.87000084 25.87000084 -9999 -9999 -9999 -9999 -9999 -9999 -9999 -9999 -9999 -9999 -9999 -9999 -9999 -9999 -9999 -9999 -9999 -9999 -9999 -9999 -9999 -9999 -9999 -9999 -9999 -9999 -9999 -9999 -9999 -9999 -9999 -9999
-9999 -9999 -9999 -9999 -9999 830.1630249 826.1630249 826.1630249 822.1630249 818.1630249 813.1630249 810.1630249 805.1630249 802.1630249 800.1630249 795.1630249 790.1630249 785.1630249 778.1630249 772.1630249 772.1630249 764.1630249 757.1630249 751.1630249 744.1630249 738.1630249 732.1630249 725.1630249 717.1630249 709.1630249 701.1630249 696.1630249 693.1630249 693.1630249 685.1630249 677.1630249 669.1630249 662.1630249 656.1630249 651.1630249 645.1630249 639.1630249 632.1630249 626.1630249 619.1630249 613.1630249 607.1630249 607.1630249 601.1630249 594.1630249 587.1630249 580.1630249 572.1630249 565.1630249 558.1630249 551.1630249 544.1630249 536.1630249 528.1630249 521.1630249 518.1630249 510.16299438 501.16299438 493.16299438 485.16299438 475.16299438 464.16299438 457.16299438 451.16299438 443.86999512 435.86999512 426.86999512 417.86999512 409.86999512 411.86999512 405.86999512 401.86999512 394.86999512 386.86999512 378.86999512 369.86999512 362.86999512 357.86999512 352.86999512 351.86999512 349.86999512 343.86999512 343.86999512 330.86999512 308.86999512 284.86999512 247.86999512 218.86999512 184.86999512 110.87000275 58.86999893 16.87000084 16.87000084 16.87000084 16.87000084 16.87000084 16.87000084 16.87000084 16.87000084 16.87000084 16.87000084 16.87000084 16.87000084 16.87000084 16.87000084 16.87000084 16.87000084 16.87000084 16.87000084 16.87000084 16.87000084 16.87000084 16.87000084 16.87000084 16.87000084 16.87000084 16.87000084 17.87000084 22.87000084 24.87000084 25.87000084 24.87000084 24.87000084 25.87000084 24.87000084 24.87000084 -9999 -9999 -9999 -9999 -9999 -9999 -9999 -9999 -9999 -9999 -9999 -9999 -9999 -9999 -9999 -9999 -9999 -9999 -9999 -9999 -9999 -9999 -9999 -9999 -9999 -9999 -9999 -9999 -9999 -9999
-9999 -9999 -9999 -9999 -9999 830.1630249 826.1630249 822.1630249 818.1630249 814.1630249 810.1630249 810.1630249 806.1630249 803.1630249 801.1630249 796.1630249 791.1630249 786.1630249 779.1630249 772.1630249 765.1630249 758.1630249 751.1630249 744.1630249 738.1630249 738.1630249 732.1630249 725.1630249 717.1630249 709.1630249 700.1630249 694.1630249 690.1630249 683.1630249 676.1630249 669.1630249 662.1630249 656.1630249 656.1630249 651.1630249 645.1630249 638.1630249 632.1630249 626.1630249 619.1630249 613.1630249 607.1630249 601.1630249 594.1630249 587.1630249 579.1630249 579.1630249 572.1630249 565.1630249 558.1630249 551.1630249 544.1630249 537.1630249 530.1630249 523.1630249 513.1630249 506.16299438 500.16299438 487.16299438 478.16299438 478.16299438 466.16299438 458.16299438 450.16299438 444.86999512 436.86999512 426.86999512 417.86999512 408.86999512 403.86999512 400.86999512 395.86999512 388.86999512 388.86999512 380.86999512 371.86999512 364.86999512 359.86999512 353.86999512 350.86999512 348.86999512 343.86999512 332.86999512 313.86999512 292.86999512 268.86999512 230.86999512 230.86999512 196.86999512 129.86999512 71.87000275 24.87000084 16.87000084 16.87000084 16.87000084 16.87000084 16.87000084 16.87000084 16.87000084 16.87000084 16.87000084 16.87000084 16.87000084 16.87000084 16.87000084 16.87000084 16.87000084 16.87000084 16.87000084 16.87000084 16.87000084 16.87000084 16.87000084 16.87000084 16.87000084 16.87000084 16.87000084 17.87000084 19.87000084 20.87000084 24.87000084 24.87000084 23.87000084 24.87000084 23.87000084 23.87000084 -9999 -9999 -9999 -9999 -9999 -9999 -9999 -9999 -9999 -9999 -9999 -9999 -9999 -9999 -9999 -9999 -9999 -9999 -9999 -9999 -9999 -9999 -9999 -9999 -9999 -9999 -9999 -9999 -9999 -9999
-9999 -9999 -9999 -9999 -9999 830.1630249 826.1630249 821.1630249 818.1630249 814.1630249 810.1630249 807.1630249 804.1630249 801.1630249 797.1630249 792.1630249 792.1630249 786.1630249 779.1630249 773.1630249 765.1630249 758.1630249 751.1630249 744.1630249 738.1630249 732.1630249 725.1630249 718.1630249 709.1630249 709.1630249 701.1630249 694.1630249 688.1630249 682.1630249 676.1630249 669.1630249 662.1630249 656.1630249 651.1630249 644.1630249 638.1630249 631.1630249 624.1630249 625.1630249 619.1630249 612.1630249 607.1630249 601.1630249 594.1630249 587.1630249 579.1630249 572.1630249 564.1630249 557.1630249 551.1630249 544.1630249 544.1630249 538.1630249 531.1630249 525.1630249 516.1630249 508.16299438 501.16299438 490.16299438 480.16299438 468.16299438 459.16299438 451.16299438 445.86999512 437.86999512 437.86999512 427.86999512 418.86999512 410.86999512 401.86999512 399.86999512 395.86999512 389.86999512 382.86999512 376.86999512 366.86999512 361.86999512 354.86999512 354.86999512 350.86999512 348.86999512 343.86999512 334.86999512 317.86999512 299.86999512 278.86999512 241.86999512 206.86999512 163.86999512 90.87000275 42.86999893 42.86999893 16.87000084 16.87000084 16.87000084 16.87000084 16.87000084 16.87000084 16.87000084 16.87000084 16.87000084 16.87000084 16.87000084 16.87000084 16.87000084 16.87000084 16.87000084 16.87000084 16.87000084 16.87000084 16.87000084 16.87000084 16.87000084 16.87000084 16.87000084 16.87000084 16.87000084 16.87000084 16.87000084 17.87000084 22.87000084 23.87000084 22.87000084 23.87000084 23.87000084 22.87000084 -9999 -9999 -9999 -9999 -9999 -9999 -9999 -9999 -9999 -9999 -9999 -9999 -9999 -9999 -9999 -9999 -9999 -9999 -9999 -9999 -9999 -9999 -9999 -9999 -9999 -9999 -9999 -9999 -9999 -9999
-9999 -9999 -9999 -9999 -9999 825.1630249 821.1630249 821.1630249 818.1630249 814.1630249 810.1630249 807.1630249 804.1630249 801.1630249 797.1630249 792.1630249 786.1630249 780.1630249 773.1630249 765.1630249 758.1630249 758.1630249 751.1630249 744.1630249 738.1630249 732.1630249 725.1630249 718.1630249 709.1630249 701.1630249 693.1630249 687.1630249 680.1630249 673.1630249 675.1630249 668.1630249 662.1630249 656.1630249 651.1630249 644.1630249 638.1630249 631.1630249 623.1630249 618.1630249 612.1630249 607.1630249 601.1630249 594.1630249 594.1630249 587.1630249 579.1630249 572.1630249 564.1630249 557.1630249 551.1630249 545.1630249 539.1630249 533.1630249 526.1630249 519.1630249 510.16299438 510.16299438 501.16299438 491.16299438 480.16299438 470.16299438 461.16299438 454.16299438 446.86999512 440.86999512 432.86999512 420.86999512 412.86999512 405.86999512 403.86999512 400.86999512 396.86999512 390.86999512 383.86999512 376.86999512 369.86999512 363.86999512 356.86999512 352.86999512 349.86999512 344.86999512 336.86999512 325.86999512 321.86999512 305.86999512 286.86999512 253.86999512 223.86999512 184.86999512 108.87000275 54.86999893 16.87000084 16.87000084 16.87000084 16.87000084 16.87000084 16.87000084 16.87000084 16.87000084 16.87000084 16.87000084 16.87000084 16.87000084 16.87000084 16.87000084 16.87000084 16.87000084 16.87000084 16.87000084 16.87000084 16.87000084 16.87000084 16.87000084 16.87000084 16.87000084 16.87000084 16.87000084 16.87000084 16.87000084 16.87000084 19.87000084 21.87000084 21.87000084 22.87000084 22.87000084 22.87000084 -9999 -9999 -9999 -9999 -9999 -9999 -9999 -9999 -9999 -9999 -9999 -9999 -9999 -9999 -9999 -9999 -9999 -9999 -9999 -9999 -9999 -9999 -9999 -9999 -9999 -9999 -9999 -9999 -9999 -9999
-9999 -9999 -9999 834.1630249 830.1630249 825.1630249 821.1630249 818.1630249 814.1630249 810.1630249 807.1630249 804.1630249 804.1630249 801.1630249 797.1630249 792.1630249 786.1630249 780.1630249 772.1630249 765.1630249 758.1630249 751.1630249 744.1630249 738.1630249 732.1630249 732.1630249 725.1630249 718.1630249 709.1630249 701.1630249 692.1630249 685.1630249 679.1630249 672.1630249 667.1630249 661.1630249 656.1630249 651.1630249 644.1630249 644.1630249 637.1630249 630.1630249 623.1630249 617.1630249 610.1630249 606.1630249 601.1630249 594.1630249 587.1630249 580.1630249 572.1630249 564.1630249 564.1630249 557.1630249 551.1630249 545.1630249 539.1630249 533.1630249 527.1630249 519.1630249 510.16299438 501.16299438 490.16299438 480.16299438 470.16299438 462.16299438 462.16299438 455.16299438 450.86999512 443.86999512 434.86999512 423.86999512 414.86999512 407.86999512 401.86999512 397.86999512 391.86999512 384.86999512 378.86999512 376.86999512 370.86999512 365.86999512 358.86999512 354.86999512 350.86999512 345.86999512 338.86999512 327.86999512 310.86999512 291.86999512 268.86999512 233.86999512 193.86999512 184.86999512 124.87000275 63.86999893 16.87000084 16.87000084 16.87000084 16.87000084 16.87000084 16.87000084 16.87000084 16.87000084 16.87000084 16.87000084 16.87000084 16.87000084 16.87000084 16.87000084 16.87000084 16.87000084 16.87000084 16.87000084 16.87000084 16.87000084 16.87000084 16.87000084 16.87000084 16.87000084 16.87000084 16.87000084 16.87000084 16.87000084 16.87000084 16.87000084 17.87000084 21.87000084 21.87000084 21.87000084 21.87000084 21.87000084 21.87000084 -9999 -9999 -9999 -9999 -9999 -9999 -9999 -9999 -9999 -9999 -9999 -9999 -9999 -9999 -9999 -9999 -9999 -9999 -9999 -9999 -9999 -9999 -9999 -9999 -9999 -9999 -9999 -9999
-9999 -9999 -9999 834.1630249 830.1630249 825.1630249 822.1630249 818.1630249 814.1630249 810.1630249 807.1630249 804.1630249 801.1630249 798.1630249 793.1630249 787.1630249 780.1630249 780.1630249 772.1630249 764.1630249 757.1630249 751.1630249 744.1630249 739.1630249 732.1630249 726.1630249 718.1630249 710.1630249 701.1630249 692.1630249 692.1630249 685.1630249 677.1630249 671.1630249 666.1630249 660.1630249 655.1630249 651.1630249 644.1630249 637.1630249 629.1630249 621.1630249 615.1630249 609.1630249 609.1630249 605.1630249 601.1630249 594.1630249 587.1630249 580.1630249 572.1630249 564.1630249 557.1630249 551.1630249 545.1630249 539.1630249 534.1630249 534.1630249 527.1630249 519.1630249 511.16299438 501.16299438 490.16299438 479.16299438 469.16299438 461.16299438 454.16299438 450.86999512 444.86999512 435.86999512 434.86999512 425.86999512 417.86999512 407.86999512 401.86999512 397.86999512 391.86999512 385.86999512 379.86999512 372.86999512 367.86999512 362.86999512 356.86999512 353.86999512 353.86999512 347.86999512 340.86999512 327.86999512 313.86999512 294.86999512 268.86999512 238.86999512 195.86999512 131.86999512 67.87000275 19.87000084 16.87000084 16.87000084 16.87000084 16.87000084 16.87000084 16.87000084 16.87000084 16.87000084 16.87000084 16.87000084 16.87000084 16.87000084 16.87000084 16.87000084 16.87000084 16.87000084 16.87000084 16.87000084 16.87000084 16.87000084 16.87000084 16.87000084 16.87000084 16.87000084 16.87000084 16.87000084 16.87000084 16.87000084 16.87000084 16.87000084 16.87000084 19.87000084 20.87000084 20.87000084 20.87000084 20.87000084 20.87000084 20.87000084 20.87000084 -9999 -9999 -9999 -9999 -9999 -9999 -9999 -9999 -9999 -9999 -9999 -9999 -9999 -9999 -9999 -9999 -9999 -9999 -9999 -9999 -9999 -9999 -9999 -9999 -9999 -9999
-9999 -9999 -9999 830.1630249 826.1630249 822.1630249 818.1630249 814.1630249 814.1630249 810.1630249 807.1630249 804.1630249 802.1630249 800.1630249 794.1630249 788.1630249 780.1630249 772.1630249 764.1630249 757.1630249 751.1630249 746.1630249 745.1630249 739.1630249 733.1630249 725.1630249 718.1630249 709.1630249 701.1630249 692.1630249 683.1630249 676.1630249 669.1630249 664.1630249 659.1630249 659.1630249 655.1630249 651.1630249 644.1630249 637.1630249 629.1630249 621.1630249 614.1630249 607.1630249 601.1630249 600.1630249 594.1630249 587.1630249 588.1630249 580.1630249 572.1630249 565.1630249 557.1630249 551.1630249 545.1630249 539.1630249 534.1630249 527.1630249 520.1630249 511.16299438 501.16299438 490.16299438 490.16299438 479.16299438 468.16299438 459.16299438 451.16299438 450.86999512 443.86999512 435.86999512 427.86999512 419.86999512 410.86999512 403.86999512 399.86999512 399.86999512 392.86999512 386.86999512 381.86999512 374.86999512 368.86999512 364.86999512 358.86999512 354.86999512 349.86999512 342.86999512 331.86999512 314.86999512 295.86999512 295.86999512 270.86999512 239.86999512 195.86999512 133.86999512 69.87000275 19.87000084 16.87000084 16.87000084 16.87000084 16.87000084 16.87000084 16.87000084 16.87000084 16.87000084 16.87000084 16.87000084 16.87000084 16.87000084 16.87000084 16.87000084 16.87000084 16.87000084 16.87000084 16.87000084 16.87000084 16.87000084 16.87000084 16.87000084 16.87000084 16.87000084 16.87000084 16.87000084 16.87000084 16.87000084 16.87000084 16.87000084 16.87000084 17.87000084 18.87000084 18.87000084 20.87000084 19.87000084 19.87000084 20.87000084 19.87000084 -9999 -9999 -9999 -9999 -9999 -9999 -9999 -9999 -9999 -9999 -9999 -9999 -9999 -9999 -9999 -9999 -9999 -9999 -9999 -9999 -9999 -9999 -9999 -9999 -9999 -9999
-9999 840.1630249 835.1630249 831.1630249 827.1630249 822.1630249 818.1630249 814.1630249 810.1630249 807.1630249 803.1630249 802.1630249 801.1630249 800.1630249 796.1630249 790.1630249 781.1630249 773.1630249 765.1630249 757.1630249 751.1630249 748.1630249 740.1630249 733.1630249 725.1630249 718.1630249 718.1630249 709.1630249 701.1630249 692.1630249 683.1630249 675.1630249 668.1630249 663.1630249 656.1630249 651.1630249 650.1630249 643.1630249 635.1630249 628.1630249 628.1630249 620.1630249 613.1630249 606.1630249 601.1630249 598.1630249 593.1630249 587.1630249 580.1630249 572.1630249 565.1630249 557.1630249 551.1630249 551.1630249 545.1630249 539.1630249 534.1630249 527.1630249 520.1630249 511.16299438 501.16299438 490.16299438 478.16299438 468.16299438 458.16299438 450.16299438 450.16299438 447.86999512 441.86999512 434.86999512 427.86999512 418.86999512 411.86999512 404.86999512 400.86999512 394.86999512 388.86999512 382.86999512 376.86999512 369.86999512 369.86999512 364.86999512 359.86999512 355.86999512 350.86999512 343.86999512 332.86999512 315.86999512 295.86999512 270.86999512 238.86999512 195.86999512 134.86999512 133.86999512 69.87000275 19.87000084 16.87000084 16.87000084 16.87000084 16.87000084 16.87000084 16.87000084 16.87000084 16.87000084 16.87000084 16.87000084 16.87000084 16.87000084 16.87000084 16.87000084 16.87000084 16.87000084 16.87000084 16.87000084 16.87000084 16.87000084 16.87000084 16.87000084 16.87000084 16.87000084 16.87000084 16.87000084 16.87000084 16.87000084 16.87000084 16.87000084 16.87000084 16.87000084 16.87000084 16.87000084 19.87000084 18.87000084 19.87000084 18.87000084 18.87000084 18.87000084 -9999 -9999 -9999 -9999 -9999 -9999 -9999 -9999 -9999 -9999 -9999 -9999 -9999 -9999 -9999 -9999 -9999 -9999 -9999 -9999 -9999 -9999 -9999 -9999 -9999
-9999 837.1630249 832.1630249 828.1630249 828.1630249 823.1630249 819.1630249 815.1630249 811.1630249 807.1630249 803.1630249 801.1630249 799.1630249 796.1630249 791.1630249 784.1630249 774.1630249 766.1630249 766.1630249 757.1630249 751.1630249 750.1630249 742.1630249 734.1630249 725.1630249 717.1630249 709.1630249 701.1630249 692.1630249 683.1630249 675.1630249 675.1630249 667.1630249 662.1630249 656.1630249 650.1630249 647.1630249 641.1630249 634.1630249 627.1630249 619.1630249 611.1630249 605.1630249 601.1630249 601.1630249 597.1630249 592.1630249 587.1630249 580.1630249 572.1630249 565.1630249 557.1630249 551.1630249 545.1630249 539.1630249 534.1630249 527.1630249 520.1630249 520.1630249 511.16299438 501.16299438 490.16299438 479.16299438 468.16299438 458.16299438 451.16299438 444.86999512 439.86999512 431.86999512 424.86999512 418.86999512 418.86999512 411.86999512 405.86999512 400.86999512 394.86999512 388.86999512 382.86999512 376.86999512 370.86999512 365.86999512 360.86999512 355.86999512 350.86999512 344.86999512 344.86999512 333.86999512 316.86999512 295.86999512 269.86999512 237.86999512 195.86999512 136.86999512 70.87000275 19.87000084 16.87000084 16.87000084 16.87000084 16.87000084 16.87000084 16.87000084 16.87000084 16.87000084 16.87000084 16.87000084 16.87000084 16.87000084 16.87000084 16.87000084 16.87000084 16.87000084 16.87000084 16.87000084 16.87000084 16.87000084 16.87000084 16.87000084 16.87000084 16.87000084 16.87000084 16.87000084 16.87000084 16.87000084 16.87000084 16.87000084 16.87000084 16.87000084 16.87000084 16.87000084 16.87000084 17.87000084 18.87000084 18.87000084 18.87000084 17.87000084 17.87000084 -9999 -9999 -9999 -9999 -9999 -9999 -9999 -9999 -9999 -9999 -9999 -9999 -9999 -9999 -9999 -9999 -9999 -9999 -9999 -9999 -9999 -9999 -9999 -9999 -9999
-9999 838.1630249 833.1630249 828.1630249 824.1630249 820.1630249 816.1630249 811.1630249 808.1630249 808.1630249 803.1630249 801.1630249 799.1630249 796.1630249 792.1630249 785.1630249 776.1630249 768.1630249 762.1630249 754.1630249 750.1630249 743.1630249 743.1630249 734.1630249 725.1630249 716.1630249 708.1630249 701.1630249 692.1630249 683.1630249 674.1630249 666.1630249 659.1630249 655.1630249 651.1630249 645.1630249 646.1630249 639.1630249 634.1630249 625.1630249 617.1630249 611.1630249 605.1630249 601.1630249 597.1630249 593.1630249 587.1630249 580.1630249 572.1630249 572.1630249 565.1630249 557.1630249 551.1630249 545.1630249 539.1630249 534.1630249 527.1630249 520.1630249 511.16299438 501.16299438 490.16299438 479.16299438 469.16299438 469.16299438 458.16299438 450.16299438 444.86999512 437.86999512 430.86999512 423.86999512 416.86999512 409.86999512 405.86999512 400.86999512 394.86999512 389.86999512 389.86999512 383.86999512 376.86999512 371.86999512 366.86999512 361.86999512 356.86999512 353.86999512 345.86999512 335.86999512 320.86999512 297.86999512 270.86999512 269.86999512 237.86999512 196.86999512 136.86999512 75.87000275 24.87000084 16.87000084 16.87000084 16.87000084 16.87000084 16.87000084 16.87000084 16.87000084 16.87000084 16.87000084 16.87000084 16.87000084 16.87000084 16.87000084 16.87000084 16.87000084 16.87000084 16.87000084 16.87000084 16.87000084 16.87000084 16.87000084 16.87000084 16.87000084 16.87000084 16.87000084 16.87000084 16.87000084 16.87000084 16.87000084 16.87000084 16.87000084 16.87000084 16.87000084 16.87000084 16.87000084 16.87000084 16.87000084 17.87000084 17.87000084 16.87000084 17.87000084 17.87000084 17.87000084 -9999 -9999 -9999 -9999 -9999 -9999 -9999 -9999 -9999 -9999 -9999 -9999 -9999 -9999 -9999 -9999 -9999 -9999 -9999 -9999 -9999 -9999 -9999
-9999 838.1630249 834.1630249 829.1630249 824.1630249 820.1630249 816.1630249 812.1630249 808.1630249 805.1630249 802.1630249 801.1630249 799.1630249 793.1630249 793.1630249 787.1630249 778.1630249 770.1630249 762.1630249 756.1630249 750.1630249 743.1630249 733.1630249 722.1630249 714.1630249 706.1630249 700.1630249 701.1630249 692.1630249 683.1630249 674.1630249 665.1630249 657.1630249 654.1630249 650.1630249 645.1630249 638.1630249 630.1630249 624.1630249 615.1630249 615.1630249 610.1630249 605.1630249 602.1630249 598.1630249 594.1630249 587.1630249 580.1630249 572.1630249 565.1630249 557.1630249 551.1630249 545.1630249 539.1630249 539.1630249 533.1630249 527.1630249 519.1630249 511.16299438 501.16299438 490.16299438 480.16299438 470.16299438 461.16299438 450.16299438 445.86999512 439.86999512 437.86999512 430.86999512 423.86999512 415.86999512 408.86999512 404.86999512 400.86999512 395.86999512 389.86999512 383.86999512 377.86999512 371.86999512 366.86999512 360.86999512 361.86999512 356.86999512 353.86999512 349.86999512 338.86999512 320.86999512 299.86999512 273.86999512 238.86999512 199.86999512 152.86999512 86.87000275 39.86999893 39.86999893 16.87000084 16.87000084 16.87000084 16.87000084 16.87000084 16.87000084 16.87000084 16.87000084 16.87000084 16.87000084 16.87000084 16.87000084 16.87000084 16.87000084 16.87000084 16.87000084 16.87000084 16.87000084 16.87000084 16.87000084 16.87000084 16.87000084 16.87000084 16.87000084 16.87000084 16.87000084 16.87000084 16.87000084 16.87000084 16.87000084 16.87000084 16.87000084 16.87000084 16.87000084 16.87000084 16.87000084 16.87000084 16.87000084 17.87000084 17.87000084 17.87000084 17.87000084 17.87000084 -9999 -9999 -9999 -9999 -9999 -9999 -9999 -9999 -9999 -9999 -9999 -9999 -9999 -9999 -9999 -9999 -9999 -9999 -9999 -9999 -9999 -9999 -9999
-9999 835.1630249 830.1630249 826.1630249 821.1630249 821.1630249 817.1630249 813.1630249 809.1630249 805.1630249 803.1630249 801.1630249 800.1630249 794.1630249 788.1630249 779.1630249 772.1630249 765.1630249 763.1630249 757.1630249 750.1630249 742.1630249 732.1630249 721.1630249 711.1630249 701.1630249 696.1630249 691.1630249 682.1630249 673.1630249 665.1630249 657.1630249 657.1630249 651.1630249 647.1630249 644.1630249 637.1630249 629.1630249 622.1630249 614.1630249 606.1630249 603.1630249 601.1630249 599.1630249 595.1630249 595.1630249 587.1630249 580.1630249 572.1630249 565.1630249 557.1630249 551.1630249 545.1630249 539.1630249 533.1630249 527.1630249 519.1630249 510.16299438 501.16299438 501.16299438 491.16299438 481.16299438 471.16299438 462.16299438 454.16299438 449.86999512 439.86999512 431.86999512 423.86999512 414.86999512 406.86999512 400.86999512 402.86999512 399.86999512 395.86999512 389.86999512 383.86999512 377.86999512 371.86999512 366.86999512 360.86999512 355.86999512 350.86999512 349.86999512 339.86999512 339.86999512 322.86999512 302.86999512 278.86999512 242.86999512 205.86999512 166.86999512 99.87000275 51.86999893 16.87000084 16.87000084 16.87000084 16.87000084 16.87000084 16.87000084 16.87000084 16.87000084 16.87000084 16.87000084 16.87000084 16.87000084 16.87000084 16.87000084 16.87000084 16.87000084 16.87000084 16.87000084 16.87000084 16.87000084 16.87000084 16.87000084 16.87000084 16.87000084 16.87000084 16.87000084 16.87000084 16.87000084 16.87000084 16.87000084 16.87000084 17.87000084 16.87000084 16.87000084 17.87000084 16.87000084 17.87000084 17.87000084 16.87000084 17.87000084 17.87000084 17.87000084 18.87000084 18.87000084 18.87000084 18.87000084 -9999 -9999 -9999 -9999 -9999 -9999 -9999 -9999 -9999 -9999 -9999 -9999 -9999 -9999 -9999 -9999 -9999 -9999 -9999 -9999 -9999
-9999 836.1630249 831.1630249 827.1630249 822.1630249 817.1630249 813.1630249 809.1630249 806.1630249 803.1630249 803.1630249 801.1630249 800.1630249 796.1630249 789.1630249 781.1630249 773.1630249 766.1630249 758.1630249 750.1630249 742.1630249 732.1630249 721.1630249 721.1630249 710.1630249 700.1630249 693.1630249 688.1630249 680.1630249 673.1630249 664.1630249 657.1630249 650.1630249 646.1630249 641.1630249 636.1630249 628.1630249 628.1630249 621.1630249 614.1630249 607.1630249 601.1630249 599.1630249 597.1630249 594.1630249 587.1630249 580.1630249 572.1630249 564.1630249 557.1630249 557.1630249 551.1630249 544.1630249 539.1630249 533.1630249 527.1630249 519.1630249 510.16299438 501.16299438 491.16299438 481.16299438 472.16299438 464.16299438 462.16299438 456.16299438 450.86999512 441.86999512 433.86999512 424.86999512 415.86999512 407.86999512 402.86999512 398.86999512 395.86999512 390.86999512 384.86999512 377.86999512 377.86999512 371.86999512 366.86999512 360.86999512 355.86999512 350.86999512 346.86999512 337.86999512 323.86999512 305.86999512 283.86999512 258.86999512 221.86999512 221.86999512 187.86999512 115.87000275 63.86999893 22.87000084 16.87000084 16.87000084 16.87000084 16.87000084 16.87000084 16.87000084 16.87000084 16.87000084 16.87000084 16.87000084 16.87000084 16.87000084 16.87000084 16.87000084 16.87000084 16.87000084 16.87000084 16.87000084 16.87000084 16.87000084 16.87000084 17.87000084 16.87000084 16.87000084 17.87000084 16.87000084 17.87000084 17.87000084 17.87000084 17.87000084 17.87000084 17.87000084 17.87000084 17.87000084 17.87000084 17.87000084 17.87000084 17.87000084 17.87000084 17.87000084 18.87000084 18.87000084 18.87000084 19.87000084 20.34600067 -9999 -9999 -9999 -9999 -9999 -9999 -9999 -9999 -9999 -9999 -9999 -9999 -9999 -9999 -9999 -9999 -9999 -9999 -9999 -9999 -9999
-9999 836.1630249 832.1630249 827.1630249 822.1630249 818.1630249 813.1630249 809.1630249 806.1630249 803.1630249 801.1630249 800.1630249 796.1630249 790.1630249 790.1630249 782.1630249 774.1630249 766.1630249 758.1630249 750.1630249 741.1630249 731.1630249 721.1630249 710.1630249 701.1630249 692.1630249 686.1630249 678.1630249 678.1630249 671.1630249 663.1630249 656.1630249 651.1630249 645.1630249 640.1630249 635.1630249 628.1630249 620.1630249 613.1630249 607.1630249 602.1630249 602.1630249 600.1630249 597.1630249 592.1630249 585.1630249 579.1630249 571.1630249 563.1630249 557.1630249 551.1630249 545.1630249 539.1630249 533.1630249 526.1630249 527.1630249 519.1630249 510.16299438 501.16299438 491.16299438 481.16299438 472.16299438 464.16299438 456.16299438 450.86999512 442.86999512 434.86999512 426.86999512 426.86999512 416.86999512 409.86999512 403.86999512 399.86999512 395.86999512 390.86999512 384.86999512 377.86999512 371.86999512 366.86999512 360.86999512 355.86999512 355.86999512 350.86999512 344.86999512 335.86999512 322.86999512 305.86999512 285.86999512 261.86999512 230.86999512 196.86999512 134.86999512 80.87000275 37.86999893 16.87000084 16.87000084 16.87000084 16.87000084 16.87000084 16.87000084 16.87000084 16.87000084 16.87000084 16.87000084 16.87000084 17.87000084 16.87000084 17.87000084 16.87000084 16.87000084 17.87000084 16.87000084 17.87000084 17.87000084 17.87000084 17.87000084 17.87000084 17.87000084 17.87000084 17.87000084 17.87000084 17.87000084 17.87000084 17.87000084 17.87000084 17.87000084 17.87000084 18.87000084 17.87000084 18.87000084 18.87000084 18.87000084 18.87000084 18.87000084 18.87000084 18.87000084 18.87000084 19.87000084 19.87000084 20.34600067 21.34600067 21.34600067 -9999 -9999 -9999 -9999 -9999 -9999 -9999 -9999 -9999 -9999 -9999 -9999 -9999 -9999 -9999 -9999 -9999 -9999 -9999
-9999 -9999 -9999 823.1630249 818.1630249 814.1630249 814.1630249 809.1630249 805.1630249 803.1630249 801.1630249 800.1630249 796.1630249 790.1630249 783.1630249 775.1630249 767.1630249 759.1630249 750.1630249 750.1630249 741.1630249 731.1630249 721.1630249 710.1630249 701.1630249 692.1630249 684.1630249 676.1630249 667.1630249 661.1630249 654.1630249 650.1630249 645.1630249 645.1630249 640.1630249 634.1630249 628.1630249 620.1630249 613.1630249 606.1630249 602.1630249 600.1630249 595.1630249 591.1630249 584.1630249 576.1630249 578.1630249 570.1630249 563.1630249 557.1630249 551.1630249 545.1630249 539.1630249 533.1630249 526.1630249 519.1630249 510.16299438 501.16299438 491.16299438 491.16299438 481.16299438 472.16299438 464.16299438 457.16299438 450.86999512 442.86999512 435.86999512 427.86999512 419.86999512 411.86999512 405.86999512 400.86999512 396.86999512 396.86999512 390.86999512 384.86999512 377.86999512 371.86999512 365.86999512 359.86999512 355.86999512 350.86999512 343.86999512 334.86999512 321.86999512 305.86999512 305.86999512 285.86999512 261.86999512 233.86999512 198.86999512 145.86999512 91.87000275 46.86999893 16.87000084 16.87000084 17.87000084 16.87000084 17.87000084 17.87000084 16.87000084 17.87000084 17.87000084 17.87000084 17.87000084 17.87000084 17.87000084 17.87000084 17.87000084 17.87000084 17.87000084 17.87000084 17.87000084 17.87000084 17.87000084 17.87000084 18.87000084 17.87000084 18.87000084 18.87000084 18.87000084 18.87000084 18.87000084 18.87000084 18.87000084 18.87000084 18.87000084 18.87000084 18.87000084 18.87000084 18.87000084 18.87000084 18.87000084 18.87000084 18.87000084 19.87000084 19.87000084 19.87000084 21.34600067 21.34600067 21.34600067 21.34600067 21.34600067 22.34600067 -9999 -9999 -9999 -9999 -9999 -9999 -9999 -9999 -9999 -9999 -9999 -9999 -9999 -9999 -9999 -9999 -9999
-9999 -9999 -9999 823.1630249 819.1630249 814.1630249 809.1630249 805.1630249 802.1630249 801.1630249 799.1630249 799.1630249 796.1630249 790.1630249 782.1630249 775.1630249 767.1630249 759.1630249 750.1630249 741.1630249 731.1630249 721.1630249 710.1630249 701.1630249 701.1630249 692.1630249 683.1630249 675.1630249 667.1630249 659.1630249 651.1630249 647.1630249 645.1630249 639.1630249 634.1630249 628.1630249 621.1630249 621.1630249 613.1630249 607.1630249 601.1630249 598.1630249 593.1630249 589.1630249 582.1630249 575.1630249 569.1630249 562.1630249 556.1630249 551.1630249 545.1630249 545.1630249 540.1630249 534.1630249 526.1630249 519.1630249 510.16299438 501.16299438 491.16299438 481.16299438 472.16299438 464.16299438 457.16299438 450.86999512 450.86999512 443.86999512 435.86999512 428.86999512 419.86999512 413.86999512 407.86999512 400.86999512 397.86999512 391.86999512 384.86999512 377.86999512 370.86999512 364.86999512 364.86999512 358.86999512 354.86999512 350.86999512 343.86999512 333.86999512 321.86999512 305.86999512 285.86999512 261.86999512 233.86999512 198.86999512 153.86999512 150.86999512 97.87000275 50.86999893 16.87000084 17.87000084 17.87000084 17.87000084 17.87000084 17.87000084 17.87000084 17.87000084 17.87000084 17.87000084 17.87000084 17.87000084 17.87000084 18.87000084 17.87000084 18.87000084 18.87000084 18.87000084 18.87000084 18.87000084 18.87000084 18.87000084 18.87000084 18.87000084 18.87000084 18.87000084 18.87000084 18.87000084 18.87000084 18.87000084 19.87000084 18.87000084 19.87000084 19.87000084 19.87000084 19.87000084 19.87000084 19.87000084 19.87000084 19.87000084 19.87000084 19.87000084 19.87000084 19.87000084 21.34600067 21.34600067 22.34600067 22.34600067 22.34600067 23.34600067 -9999 -9999 -9999 -9999 -9999 -9999 -9999 -9999 -9999 -9999 -9999 -9999 -9999 -9999 -9999 -9999 -9999
-9999 -9999 -9999 -9999 -9999 -9999 809.1630249 805.1630249 801.1630249 801.1630249 798.1630249 793.1630249 788.1630249 781.1630249 774.1630249 774.1630249 767.1630249 759.1630249 751.1630249 741.1630249 731.1630249 721.1630249 710.1630249 701.1630249 692.1630249 683.1630249 675.1630249 666.1630249 658.1630249 658.1630249 650.1630249 647.1630249 642.1630249 637.1630249 633.1630249 627.1630249 621.1630249 614.1630249 607.1630249 601.1630249 596.1630249 590.1630249 590.1630249 587.1630249 580.1630249 573.1630249 568.1630249 561.1630249 556.1630249 551.1630249 545.1630249 540.1630249 534.1630249 527.1630249 519.1630249 519.1630249 510.16299438 501.16299438 491.16299438 482.16299438 473.16299438 464.16299438 456.16299438 450.86999512 443.86999512 436.86999512 429.86999512 422.86999512 414.86999512 414.86999512 409.86999512 403.86999512 399.86999512 393.86999512 385.86999512 377.86999512 369.86999512 362.86999512 356.86999512 350.86999512 349.86999512 343.86999512 343.86999512 333.86999512 322.86999512 305.86999512 286.86999512 263.86999512 233.86999512 199.86999512 159.86999512 102.87000275 54.86999893 16.87000084 17.87000084 17.87000084 17.87000084 17.87000084 18.87000084 17.87000084 18.87000084 18.87000084 18.87000084 18.87000084 18.87000084 18.87000084 18.87000084 19.87000084 18.87000084 18.87000084 19.87000084 18.87000084 19.87000084 19.87000084 18.87000084 19.87000084 18.87000084 19.87000084 19.87000084 19.87000084 19.87000084 19.87000084 19.87000084 19.87000084 19.87000084 19.87000084 19.87000084 20.87000084 19.87000084 20.87000084 20.87000084 19.87000084 19.87000084 19.87000084 19.87000084 20.87000084 19.87000084 20.87000084 21.34600067 21.34600067 22.34600067 22.34600067 22.34600067 23.34600067 23.34600067 -9999 -9999 -9999 -9999 -9999 -9999 -9999 -9999 -9999 -9999 -9999 -9999 -9999 -9999 -9999 -9999
-9999 -9999 -9999 -9999 -9999 -9999 806.1630249 806.1630249 801.1630249 800.1630249 797.1630249 793.1630249 787.1630249 780.1630249 773.1630249 766.1630249 758.1630249 751.1630249 741.1630249 731.1630249 731.1630249 721.1630249 710.1630249 701.1630249 692.1630249 683.1630249 675.1630249 667.1630249 658.1630249 651.1630249 644.1630249 641.1630249 636.1630249 636.1630249 632.1630249 627.1630249 621.1630249 615.1630249 608.1630249 601.1630249 595.1630249 588.1630249 584.1630249 578.1630249 571.1630249 567.1630249 561.1630249 561.1630249 556.1630249 551.1630249 545.1630249 540.1630249 534.1630249 527.1630249 520.1630249 510.16299438 500.16299438 490.16299438 482.16299438 473.16299438 473.16299438 465.16299438 456.16299438 449.86999512 444.86999512 436.86999512 430.86999512 423.86999512 416.86999512 410.86999512 405.86999512 400.86999512 393.86999512 385.86999512 385.86999512 377.86999512 369.86999512 362.86999512 355.86999512 350.86999512 347.86999512 341.86999512 334.86999512 323.86999512 309.86999512 289.86999512 268.86999512 268.86999512 236.86999512 204.86999512 171.86999512 111.87000275 62.86999893 16.87000084 18.87000084 18.87000084 17.87000084 18.87000084 18.87000084 18.87000084 18.87000084 19.87000084 18.87000084 19.87000084 19.87000084 19.87000084 19.87000084 19.87000084 19.87000084 19.87000084 19.87000084 19.87000084 19.87000084 19.87000084 19.87000084 19.87000084 19.87000084 19.87000084 20.87000084 19.87000084 20.87000084 20.87000084 20.87000084 20.87000084 20.87000084 20.87000084 20.87000084 20.87000084 20.87000084 20.87000084 20.87000084 20.87000084 20.87000084 20.87000084 20.87000084 20.87000084 20.87000084 21.34600067 22.34600067 22.34600067 22.34600067 22.34600067 23.34600067 23.34600067 23.34600067 -9999 -9999 -9999 -9999 -9999 -9999 -9999 -9999 -9999 -9999 -9999 -9999 -9999 -9999 -9999 -9999
-9999 -9999 -9999 -9999 -9999 -9999 -9999 -9999 800.1630249 796.1630249 790.1630249 792.1630249 785.1630249 778.1630249 772.1630249 765.1630249 758.1630249 751.1630249 742.1630249 732.1630249 721.1630249 710.1630249 701.1630249 692.1630249 683.1630249 683.1630249 675.1630249 667.1630249 658.1630249 651.1630249 644.1630249 639.1630249 635.1630249 630.1630249 626.1630249 621.1630249 615.1630249 608.1630249 608.1630249 601.1630249 594.1630249 587.1630249 582.1630249 575.1630249 569.1630249 565.1630249 560.1630249 555.1630249 551.1630249 545.1630249 539.1630249 533.1630249 533.1630249 526.1630249 520.1630249 509.16299438 500.16299438 490.16299438 482.16299438 474.16299438 467.16299438 460.16299438 450.86999512 446.86999512 439.86999512 438.86999512 431.86999512 424.86999512 416.86999512 411.86999512 405.86999512 400.86999512 393.86999512 385.86999512 377.86999512 369.86999512 362.86999512 355.86999512 355.86999512 350.86999512 345.86999512 340.86999512 334.86999512 324.86999512 312.86999512 293.86999512 274.86999512 253.86999512 218.86999512 191.86999512 127.87000275 80.87000275 80.87000275 16.87000084 19.87000084 20.87000084 18.87000084 19.87000084 19.87000084 19.87000084 19.87000084 19.87000084 19.87000084 19.87000084 20.87000084 19.87000084 19.87000084 19.87000084 19.87000084 20.87000084 19.87000084 20.87000084 20.87000084 20.87000084 20.87000084 20.87000084 20.87000084 20.87000084 20.87000084 20.87000084 20.87000084 20.87000084 20.87000084 20.87000084 20.87000084 20.87000084 21.87000084 20.87000084 21.87000084 21.87000084 20.87000084 21.87000084 21.87000084 20.87000084 20.87000084 20.87000084 20.87000084 22.34600067 22.34600067 22.34600067 23.34600067 23.34600067 23.34600067 24.34600067 24.34600067 -9999 -9999 -9999 -9999 -9999 -9999 -9999 -9999 -9999 -9999 -9999 -9999 -9999 -9999 -9999 -9999
-9999 -9999 -9999 -9999 -9999 -9999 -9999 -9999 801.1630249 796.1630249 790.1630249 783.1630249 776.1630249 768.1630249 763.1630249 757.1630249 757.1630249 751.1630249 742.1630249 732.1630249 721.1630249 711.1630249 701.1630249 691.1630249 683.1630249 675.1630249 667.1630249 659.1630249 651.1630249 651.1630249 644.1630249 639.1630249 634.1630249 630.1630249 626.1630249 621.1630249 615.1630249 608.1630249 601.1630249 593.1630249 585.1630249 577.1630249 573.1630249 573.1630249 567.1630249 564.1630249 559.1630249 555.1630249 551.1630249 545.1630249 539.1630249 532.1630249 524.1630249 518.1630249 509.16299438 500.16299438 500.16299438 490.16299438 482.16299438 474.16299438 467.16299438 461.16299438 454.86999512 449.86999512 442.86999512 432.86999512 424.86999512 417.86999512 411.86999512 405.86999512 405.86999512 400.86999512 393.86999512 385.86999512 377.86999512 369.86999512 362.86999512 355.86999512 350.86999512 345.86999512 340.86999512 334.86999512 325.86999512 325.86999512 314.86999512 297.86999512 281.86999512 253.86999512 230.86999512 203.86999512 149.86999512 101.87000275 55.86999893 16.87000084 22.87000084 22.87000084 20.87000084 20.87000084 20.87000084 19.87000084 19.87000084 19.87000084 20.87000084 20.87000084 20.87000084 20.87000084 20.87000084 20.87000084 20.87000084 20.87000084 20.87000084 20.87000084 20.87000084 20.87000084 20.87000084 21.87000084 20.87000084 21.87000084 21.87000084 21.87000084 21.87000084 21.87000084 21.87000084 21.87000084 21.87000084 21.87000084 21.87000084 21.87000084 21.87000084 21.87000084 21.87000084 21.87000084 21.87000084 21.87000084 21.87000084 21.87000084 22.34600067 22.34600067 22.34600067 23.34600067 23.34600067 23.34600067 24.34600067 24.34600067 24.34600067 -9999 -9999 -9999 -9999 -9999 -9999 -9999 -9999 -9999 -9999 -9999 -9999 -9999 -9999 -9999 -9999
-9999 -9999 -9999 -9999 -9999 -9999 -9999 -9999 -9999 -9999 789.1630249 782.1630249 774.1630249 766.1630249 761.1630249 755.1630249 751.1630249 742.1630249 732.1630249 721.1630249 711.1630249 711.1630249 701.1630249 691.1630249 683.1630249 675.1630249 667.1630249 659.1630249 651.1630249 644.1630249 638.1630249 634.1630249 629.1630249 625.1630249 625.1630249 620.1630249 615.1630249 608.1630249 600.1630249 592.1630249 583.1630249 575.1630249 570.1630249 564.1630249 559.1630249 557.1630249 554.1630249 551.1630249 551.1630249 546.1630249 539.1630249 531.1630249 523.1630249 516.1630249 508.16299438 500.16299438 491.16299438 483.16299438 475.16299438 468.16299438 462.16299438 462.16299438 455.86999512 450.86999512 442.86999512 433.86999512 425.86999512 417.86999512 411.86999512 405.86999512 400.86999512 393.86999512 385.86999512 377.86999512 377.86999512 369.86999512 362.86999512 355.86999512 350.86999512 345.86999512 340.86999512 334.86999512 326.86999512 316.86999512 301.86999512 286.86999512 268.86999512 241.86999512 241.86999512 218.86999512 169.86999512 125.87000275 78.87000275 20.87000084 21.87000084 23.87000084 22.87000084 22.87000084 20.87000084 20.87000084 20.87000084 19.87000084 20.87000084 20.87000084 20.87000084 20.87000084 21.87000084 20.87000084 21.87000084 21.87000084 21.87000084 21.87000084 21.87000084 21.87000084 21.87000084 21.87000084 21.87000084 21.87000084 21.87000084 21.87000084 21.87000084 21.87000084 21.87000084 22.87000084 21.87000084 22.87000084 22.87000084 22.87000084 22.87000084 22.87000084 21.87000084 22.87000084 22.87000084 21.87000084 22.87000084 21.87000084 22.34600067 23.34600067 23.34600067 23.34600067 24.34600067 23.34600067 24.34600067 24.34600067 24.34600067 25.34600067 24.34600067 -9999 -9999 -9999 -9999 -9999 -9999 -9999 -9999 -9999 -9999 -9999 -9999 -9999 -9999
-9999 -9999 -9999 -9999 -9999 -9999 -9999 -9999 -9999 -9999 -9999 -9999 773.1630249 766.1630249 758.1630249 751.1630249 750.1630249 742.1630249 732.1630249 722.1630249 711.1630249 701.1630249 691.1630249 683.1630249 674.1630249 667.1630249 667.1630249 659.1630249 651.1630249 644.1630249 638.1630249 634.1630249 629.1630249 625.1630249 620.1630249 615.1630249 608.1630249 600.1630249 591.1630249 592.1630249 582.1630249 572.1630249 567.1630249 561.1630249 559.1630249 556.1630249 553.1630249 551.1630249 546.1630249 541.1630249 532.1630249 525.1630249 525.1630249 516.1630249 508.16299438 500.16299438 491.16299438 483.16299438 475.16299438 468.16299438 461.16299438 456.86999512 450.86999512 442.86999512 433.86999512 424.86999512 424.86999512 417.86999512 410.86999512 405.86999512 400.86999512 393.86999512 385.86999512 377.86999512 369.86999512 361.86999512 355.86999512 350.86999512 345.86999512 345.86999512 340.86999512 334.86999512 327.86999512 318.86999512 304.86999512 290.86999512 273.86999512 248.86999512 225.86999512 199.86999512 148.86999512 102.87000275 102.87000275 40.86999893 18.87000084 23.87000084 23.87000084 23.87000084 22.87000084 22.87000084 22.87000084 20.87000084 21.87000084 21.87000084 21.87000084 21.87000084 21.87000084 21.87000084 21.87000084 21.87000084 21.87000084 21.87000084 21.87000084 21.87000084 22.87000084 21.87000084 22.87000084 22.87000084 22.87000084 22.87000084 22.87000084 22.87000084 22.87000084 22.87000084 22.87000084 22.87000084 23.87000084 22.87000084 22.87000084 22.87000084 22.87000084 22.87000084 22.87000084 22.87000084 22.87000084 22.87000084 23.34600067 23.34600067 23.34600067 23.34600067 24.34600067 24.34600067 24.34600067 24.34600067 24.34600067 25.34600067 24.34600067 25.34600067 25.34600067 -9999 -9999 -9999 -9999 -9999 -9999 -9999 -9999 -9999 -9999 -9999 -9999
-9999 -9999 -9999 -9999 -9999 -9999 -9999 -9999 -9999 -9999 -9999 -9999 764.1630249 757.1630249 750.1630249 745.1630249 739.1630249 739.1630249 731.1630249 721.1630249 711.1630249 701.1630249 691.1630249 682.1630249 674.1630249 666.1630249 658.1630249 651.1630249 644.1630249 639.1630249 638.1630249 634.1630249 630.1630249 625.1630249 621.1630249 615.1630249 608.1630249 600.1630249 591.1630249 581.1630249 570.1630249 564.1630249 557.1630249 552.1630249 556.1630249 553.1630249 551.1630249 550.1630249 547.1630249 544.1630249 535.1630249 528.1630249 519.1630249 508.16299438 499.16299438 490.16299438 483.16299438 483.16299438 475.16299438 468.16299438 461.16299438 456.86999512 450.86999512 442.86999512 433.86999512 423.86999512 415.86999512 409.86999512 404.86999512 400.86999512 400.86999512 393.86999512 385.86999512 377.86999512 369.86999512 361.86999512 355.86999512 350.86999512 345.86999512 340.86999512 335.86999512 328.86999512 320.86999512 309.86999512 307.86999512 293.86999512 277.86999512 253.86999512 230.86999512 203.86999512 163.86999512 122.87000275 61.86999893 32.86999893 24.87000084 25.87000084 25.87000084 25.87000084 24.87000084 24.87000084 24.87000084 22.87000084 22.87000084 22.87000084 21.87000084 21.87000084 22.87000084 22.87000084 22.87000084 22.87000084 22.87000084 22.87000084 22.87000084 22.87000084 22.87000084 22.87000084 22.87000084 23.87000084 22.87000084 23.87000084 23.87000084 23.87000084 23.87000084 23.87000084 23.87000084 23.87000084 23.87000084 23.87000084 23.87000084 23.87000084 23.87000084 23.87000084 22.87000084 23.87000084 23.87000084 23.34600067 23.34600067 23.34600067 23.34600067 24.34600067 24.34600067 24.34600067 25.34600067 24.34600067 24.34600067 25.34600067 25.34600067 25.34600067 26.34600067 -9999 -9999 -9999 -9999 -9999 -9999 -9999 -9999 -9999 -9999 -9999 -9999
-9999 -9999 -9999 -9999 -9999 -9999 -9999 -9999 -9999 -9999 -9999 -9999 -9999 -9999 750.1630249 744.1630249 737.1630249 729.1630249 720.1630249 710.1630249 701.1630249 691.1630249 691.1630249 682.1630249 674.1630249 666.1630249 658.1630249 651.1630249 644.1630249 639.1630249 634.1630249 630.1630249 627.1630249 621.1630249 616.1630249 616.1630249 608.1630249 600.1630249 591.1630249 581.1630249 569.1630249 560.1630249 553.1630249 547.1630249 549.1630249 549.1630249 550.1630249 549.1630249 549.1630249 547.1630249 540.1630249 533.1630249 523.1630249 509.16299438 499.16299438 490.16299438 482.16299438 475.16299438 468.16299438 460.16299438 454.86999512 450.86999512 450.86999512 442.86999512 432.86999512 423.86999512 414.86999512 407.86999512 402.86999512 399.86999512 393.86999512 386.86999512 377.86999512 369.86999512 361.86999512 361.86999512 355.86999512 350.86999512 345.86999512 340.86999512 335.86999512 329.86999512 321.86999512 311.86999512 296.86999512 281.86999512 263.86999512 238.86999512 216.86999512 203.86999512 177.86999512 141.86999512 81.87000275 46.86999893 19.87000084 27.87000084 27.87000084 27.87000084 25.87000084 25.87000084 25.87000084 24.87000084 24.87000084 24.87000084 22.87000084 22.87000084 22.87000084 22.87000084 23.87000084 22.87000084 23.87000084 23.87000084 23.87000084 23.87000084 23.87000084 23.87000084 23.87000084 23.87000084 23.87000084 23.87000084 23.87000084 23.87000084 23.87000084 23.87000084 23.87000084 24.87000084 23.87000084 24.87000084 24.87000084 23.87000084 23.87000084 23.87000084 23.87000084 23.87000084 23.87000084 24.34600067 24.34600067 24.34600067 24.34600067 24.34600067 25.34600067 25.34600067 25.34600067 24.34600067 25.34600067 25.34600067 25.34600067 26.34600067 26.34600067 26.34600067 27.34600067 -9999 -9999 -9999 -9999 -9999 -9999 -9999 -9999 -9999 -9999
-9999 -9999 -9999 -9999 -9999 -9999 -9999 -9999 -9999 -9999 -9999 -9999 -9999 -9999 750.1630249 744.1630249 736.1630249 728.1630249 720.1630249 710.1630249 701.1630249 691.1630249 682.1630249 673.1630249 665.1630249 657.1630249 657.1630249 651.1630249 645.1630249 640.1630249 635.1630249 631.1630249 627.1630249 623.1630249 617.1630249 609.1630249 601.1630249 595.1630249 581.1630249 569.1630249 569.1630249 558.1630249 548.1630249 543.1630249 545.1630249 547.1630249 549.1630249 550.1630249 550.1630249 544.1630249 539.1630249 529.1630249 512.1630249 512.1630249 499.16299438 488.16299438 479.16299438 471.16299438 467.16299438 459.16299438 450.86999512 449.86999512 441.86999512 431.86999512 422.86999512 413.86999512 414.86999512 406.86999512 400.86999512 399.86999512 394.86999512 386.86999512 378.86999512 369.86999512 361.86999512 355.86999512 350.86999512 345.86999512 341.86999512 336.86999512 336.86999512 330.86999512 322.86999512 311.86999512 299.86999512 284.86999512 263.86999512 243.86999512 222.86999512 194.86999512 160.86999512 122.87000275 66.87000275 66.87000275 38.86999893 28.87000084 28.87000084 28.87000084 27.87000084 27.87000084 25.87000084 25.87000084 25.87000084 24.87000084 24.87000084 24.87000084 22.87000084 22.87000084 23.87000084 23.87000084 23.87000084 23.87000084 23.87000084 23.87000084 24.87000084 23.87000084 24.87000084 23.87000084 24.87000084 24.87000084 23.87000084 24.87000084 24.87000084 24.87000084 24.87000084 24.87000084 24.87000084 24.87000084 24.87000084 24.87000084 24.87000084 24.87000084 24.87000084 24.87000084 23.87000084 24.34600067 25.34600067 24.34600067 24.34600067 25.34600067 25.34600067 25.34600067 25.34600067 25.34600067 25.34600067 26.34600067 26.34600067 26.34600067 26.34600067 26.34600067 27.34600067 -9999 -9999 -9999 -9999 -9999 -9999 -9999 -9999 -9999 -9999
-9999 -9999 -9999 -9999 -9999 -9999 -9999 -9999 -9999 -9999 -9999 -9999 -9999 -9999 -9999 736.1630249 728.1630249 718.1630249 719.1630249 709.1630249 700.1630249 692.1630249 683.1630249 674.1630249 665.1630249 657.1630249 651.1630249 645.1630249 641.1630249 636.1630249 632.1630249 632.1630249 628.1630249 624.1630249 619.1630249 612.1630249 606.1630249 600.1630249 584.1630249 569.1630249 556.1630249 545.1630249 539.1630249 537.1630249 541.1630249 543.1630249 549.1630249 551.1630249 553.1630249 550.1630249 546.1630249 536.1630249 515.1630249 499.16299438 485.16299438 475.16299438 466.16299438 461.16299438 465.16299438 458.16299438 450.86999512 445.86999512 438.86999512 431.86999512 422.86999512 413.86999512 406.86999512 401.86999512 399.86999512 394.86999512 387.86999512 387.86999512 378.86999512 369.86999512 362.86999512 355.86999512 350.86999512 345.86999512 341.86999512 336.86999512 330.86999512 323.86999512 314.86999512 301.86999512 288.86999512 288.86999512 268.86999512 248.86999512 226.86999512 199.86999512 172.86999512 139.86999512 87.87000275 59.86999893 40.86999893 30.87000084 30.87000084 28.87000084 28.87000084 29.87000084 27.87000084 27.87000084 27.87000084 26.87000084 26.87000084 26.87000084 24.87000084 24.87000084 24.87000084 24.87000084 24.87000084 24.87000084 24.87000084 24.87000084 24.87000084 24.87000084 24.87000084 24.87000084 24.87000084 24.87000084 24.87000084 24.87000084 25.87000084 24.87000084 25.87000084 25.87000084 24.87000084 25.87000084 25.87000084 24.87000084 24.87000084 24.87000084 24.87000084 24.87000084 25.34600067 25.34600067 25.34600067 25.34600067 25.34600067 25.34600067 25.34600067 26.34600067 25.34600067 25.34600067 26.34600067 26.34600067 26.34600067 27.34600067 27.34600067 27.34600067 28.34600067 -9999 -9999 -9999 -9999 -9999 -9999 -9999 -9999 -9999 -9999
-9999 -9999 -9999 -9999 -9999 -9999 -9999 -9999 -9999 -9999 -9999 -9999 -9999 -9999 -9999 736.1630249 728.1630249 720.1630249 709.1630249 701.1630249 695.1630249 684.1630249 684.1630249 675.1630249 665.1630249 657.1630249 651.1630249 647.1630249 643.1630249 637.1630249 634.1630249 630.1630249 625.1630249 620.1630249 614.1630249 608.1630249 608.1630249 600.1630249 587.1630249 572.1630249 557.1630249 544.1630249 537.1630249 537.1630249 539.1630249 543.1630249 550.1630249 555.1630249 561.1630249 555.1630249 555.1630249 548.1630249 520.1630249 500.16299438 487.16299438 472.16299438 463.16299438 457.16299438 456.16299438 450.86999512 443.86999512 435.86999512 427.86999512 429.86999512 421.86999512 413.86999512 407.86999512 402.86999512 400.86999512 394.86999512 387.86999512 379.86999512 370.86999512 362.86999512 355.86999512 350.86999512 350.86999512 345.86999512 341.86999512 336.86999512 330.86999512 323.86999512 315.86999512 303.86999512 290.86999512 275.86999512 254.86999512 235.86999512 215.86999512 202.86999512 182.86999512 153.86999512 106.87000275 77.87000275 40.86999893 30.87000084 30.87000084 30.87000084 30.87000084 30.87000084 29.87000084 29.87000084 29.87000084 27.87000084 27.87000084 27.87000084 26.87000084 26.87000084 26.87000084 24.87000084 24.87000084 24.87000084 24.87000084 25.87000084 24.87000084 25.87000084 25.87000084 24.87000084 25.87000084 25.87000084 25.87000084 25.87000084 25.87000084 25.87000084 25.87000084 25.87000084 25.87000084 25.87000084 25.87000084 25.87000084 25.87000084 25.87000084 25.87000084 25.87000084 25.34600067 26.34600067 26.34600067 25.34600067 26.34600067 26.34600067 26.34600067 25.34600067 26.34600067 25.34600067 26.34600067 26.34600067 26.34600067 27.34600067 27.34600067 27.34600067 28.34600067 -9999 -9999 -9999 -9999 -9999 -9999 -9999 -9999 -9999 -9999
-9999 -9999 -9999 -9999 -9999 -9999 -9999 -9999 -9999 -9999 -9999 -9999 -9999 -9999 -9999 737.1630249 729.1630249 721.1630249 711.1630249 705.1630249 700.1630249 687.1630249 678.1630249 666.1630249 657.1630249 651.1630249 648.1630249 648.1630249 645.1630249 639.1630249 635.1630249 631.1630249 625.1630249 620.1630249 613.1630249 607.1630249 600.1630249 589.1630249 574.1630249 559.1630249 557.1630249 545.1630249 537.1630249 535.1630249 537.1630249 542.1630249 549.1630249 -9999 -9999 567.1630249 568.1630249 560.1630249 509.16299438 501.16299438 501.16299438 476.16299438 464.16299438 457.16299438 453.16299438 449.86999512 442.86999512 434.86999512 425.86999512 419.86999512 412.86999512 406.86999512 402.86999512 402.86999512 400.86999512 394.86999512 387.86999512 379.86999512 370.86999512 362.86999512 355.86999512 350.86999512 345.86999512 341.86999512 336.86999512 331.86999512 324.86999512 324.86999512 315.86999512 304.86999512 291.86999512 277.86999512 258.86999512 240.86999512 221.86999512 196.86999512 165.86999512 121.87000275 91.87000275 67.87000275 55.86999893 40.86999893 30.87000084 30.87000084 30.87000084 30.87000084 30.87000084 30.87000084 30.87000084 29.87000084 29.87000084 29.87000084 27.87000084 27.87000084 26.87000084 26.87000084 26.87000084 24.87000084 25.87000084 25.87000084 25.87000084 25.87000084 26.87000084 25.87000084 26.87000084 26.87000084 26.87000084 26.87000084 26.87000084 26.87000084 26.87000084 25.87000084 26.87000084 26.87000084 25.87000084 26.87000084 26.87000084 25.87000084 25.87000084 27.34600067 26.34600067 26.34600067 26.34600067 26.34600067 26.34600067 25.34600067 25.34600067 25.34600067 26.34600067 26.34600067 26.34600067 27.34600067 27.34600067 27.34600067 27.34600067 28.34600067 28.34600067 28.34600067 29.34600067 -9999 -9999 -9999 -9999 -9999 -9999 -9999 -9999
-9999 -9999 -9999 -9999 -9999 -9999 -9999 -9999 -9999 -9999 -9999 -9999 -9999 -9999 -9999 730.1630249 722.1630249 713.1630249 713.1630249 706.1630249 700.1630249 691.1630249 682.1630249 668.1630249 660.1630249 653.1630249 650.1630249 646.1630249 642.1630249 636.1630249 631.1630249 625.1630249 625.1630249 618.1630249 613.1630249 607.1630249 600.1630249 589.1630249 575.1630249 562.1630249 547.1630249 540.1630249 537.1630249 537.1630249 543.1630249 543.1630249 549.1630249 -9999 -9999 579.1630249 588.1630249 560.1630249 546.1630249 534.1630249 489.16299438 474.16299438 460.16299438 452.16299438 449.86999512 449.86999512 442.86999512 433.86999512 424.86999512 417.86999512 410.86999512 404.86999512 402.86999512 399.86999512 394.86999512 388.86999512 380.86999512 371.86999512 371.86999512 362.86999512 355.86999512 350.86999512 345.86999512 341.86999512 336.86999512 331.86999512 323.86999512 315.86999512 304.86999512 291.86999512 277.86999512 277.86999512 261.86999512 243.86999512 221.86999512 199.86999512 170.86999512 132.86999512 100.87000275 73.87000275 49.86999893 37.86999893 30.87000084 30.87000084 30.87000084 30.87000084 30.87000084 30.87000084 30.87000084 30.87000084 30.87000084 29.87000084 29.87000084 29.87000084 28.87000084 28.87000084 28.87000084 26.87000084 26.87000084 26.87000084 26.87000084 26.87000084 26.87000084 26.87000084 26.87000084 26.87000084 26.87000084 26.87000084 26.87000084 26.87000084 27.87000084 26.87000084 26.87000084 26.87000084 26.87000084 26.87000084 26.87000084 26.87000084 26.87000084 27.34600067 27.34600067 27.34600067 26.34600067 26.34600067 26.34600067 25.34600067 25.34600067 26.34600067 26.34600067 26.34600067 27.34600067 27.34600067 27.34600067 28.34600067 28.34600067 28.34600067 29.34600067 29.34600067 29.34600067 -9999 -9999 -9999 -9999 -9999 -9999 -9999 -9999
-9999 -9999 -9999 -9999 -9999 -9999 -9999 -9999 -9999 -9999 -9999 -9999 -9999 -9999 -9999 731.1630249 724.1630249 715.1630249 708.1630249 701.1630249 693.1630249 685.1630249 676.1630249 672.1630249 663.1630249 655.1630249 651.1630249 646.1630249 642.1630249 637.1630249 631.1630249 625.1630249 618.1630249 609.1630249 605.1630249 599.1630249 588.1630249 589.1630249 576.1630249 564.1630249 550.1630249 543.1630249 541.1630249 540.1630249 545.1630249 550.1630249 -9999 -9999 -9999 -9999 -9999 592.1630249 587.1630249 573.1630249 516.1630249 492.16299438 470.16299438 453.16299438 449.86999512 443.86999512 434.86999512 424.86999512 415.86999512 416.86999512 409.86999512 404.86999512 400.86999512 397.86999512 394.86999512 388.86999512 380.86999512 372.86999512 363.86999512 356.86999512 350.86999512 346.86999512 342.86999512 341.86999512 337.86999512 331.86999512 323.86999512 314.86999512 304.86999512 290.86999512 275.86999512 260.86999512 243.86999512 223.86999512 200.86999512 171.86999512 171.86999512 137.86999512 105.87000275 76.87000275 53.86999893 39.86999893 30.87000084 30.87000084 30.87000084 30.87000084 30.87000084 30.87000084 30.87000084 30.87000084 30.87000084 30.87000084 30.87000084 30.87000084 29.87000084 29.87000084 29.87000084 28.87000084 28.87000084 28.87000084 26.87000084 26.87000084 26.87000084 26.87000084 27.87000084 26.87000084 27.87000084 27.87000084 27.87000084 27.87000084 27.87000084 27.87000084 27.87000084 27.87000084 27.87000084 27.87000084 27.87000084 26.87000084 27.87000084 27.34600067 27.34600067 26.34600067 26.34600067 26.34600067 26.34600067 26.34600067 26.34600067 26.34600067 27.34600067 27.34600067 27.34600067 27.34600067 28.34600067 28.34600067 28.34600067 29.34600067 29.34600067 29.34600067 30.34600067 -9999 -9999 -9999 -9999 -9999 -9999 -9999 -9999
-9999 -9999 -9999 -9999 -9999 -9999 -9999 -9999 -9999 -9999 -9999 -9999 -9999 -9999 -9999 -9999 -9999 717.1630249 711.1630249 705.1630249 696.1630249 689.1630249 681.1630249 667.1630249 658.1630249 651.1630249 646.1630249 641.1630249 642.1630249 637.1630249 632.1630249 625.1630249 618.1630249 609.1630249 600.1630249 594.1630249 584.1630249 576.1630249 565.1630249 556.1630249 547.1630249 547.1630249 545.1630249 544.1630249 549.1630249 550.1630249 -9999 -9999 -9999 -9999 -9999 -9999 -9999 580.1630249 515.1630249 515.1630249 482.16299438 456.16299438 450.86999512 441.86999512 434.86999512 424.86999512 415.86999512 409.86999512 404.86999512 400.86999512 396.86999512 392.86999512 393.86999512 388.86999512 381.86999512 373.86999512 365.86999512 358.86999512 350.86999512 347.86999512 344.86999512 338.86999512 332.86999512 324.86999512 314.86999512 314.86999512 303.86999512 289.86999512 272.86999512 258.86999512 240.86999512 221.86999512 200.86999512 171.86999512 139.86999512 106.87000275 75.87000275 49.86999893 37.86999893 37.86999893 30.87000084 30.87000084 30.87000084 30.87000084 30.87000084 30.87000084 30.87000084 30.87000084 30.87000084 30.87000084 30.87000084 30.87000084 30.87000084 30.87000084 30.87000084 29.87000084 29.87000084 28.87000084 28.87000084 28.87000084 27.87000084 27.87000084 27.87000084 27.87000084 27.87000084 28.87000084 27.87000084 27.87000084 28.87000084 27.87000084 27.87000084 28.87000084 27.87000084 27.87000084 27.87000084 27.87000084 27.34600067 27.34600067 27.34600067 27.34600067 27.34600067 27.34600067 27.34600067 26.34600067 27.34600067 27.34600067 27.34600067 27.34600067 28.34600067 28.34600067 28.34600067 28.34600067 28.34600067 29.34600067 29.34600067 29.34600067 30.34600067 30.34600067 -9999 -9999 -9999 -9999 -9999 -9999 -9999
-9999 -9999 -9999 -9999 -9999 -9999 -9999 -9999 -9999 -9999 -9999 -9999 -9999 -9999 -9999 -9999 -9999 715.1630249 710.1630249 710.1630249 700.1630249 695.1630249 688.1630249 673.1630249 664.1630249 651.1630249 646.1630249 642.1630249 637.1630249 633.1630249 627.1630249 619.1630249 610.1630249 610.1630249 599.1630249 590.1630249 580.1630249 574.1630249 564.1630249 556.1630249 550.1630249 548.1630249 546.1630249 550.1630249 554.1630249 560.1630249 -9999 -9999 -9999 -9999 -9999 -9999 -9999 607.1630249 537.1630249 491.16299438 457.16299438 449.86999512 438.86999512 441.86999512 433.86999512 424.86999512 415.86999512 408.86999512 403.86999512 400.86999512 396.86999512 392.86999512 387.86999512 382.86999512 375.86999512 367.86999512 361.86999512 358.86999512 353.86999512 350.86999512 344.86999512 340.86999512 334.86999512 324.86999512 315.86999512 302.86999512 287.86999512 269.86999512 250.86999512 235.86999512 235.86999512 217.86999512 199.86999512 172.86999512 139.86999512 106.87000275 75.87000275 49.86999893 30.87000084 30.87000084 30.87000084 30.87000084 30.87000084 30.87000084 30.87000084 30.87000084 30.87000084 30.87000084 30.87000084 30.87000084 30.87000084 30.87000084 30.87000084 30.87000084 30.87000084 30.87000084 30.87000084 30.87000084 30.87000084 30.87000084 28.87000084 28.87000084 28.87000084 28.87000084 28.87000084 28.87000084 28.87000084 28.87000084 28.87000084 28.87000084 28.87000084 28.87000084 28.87000084 28.87000084 27.87000084 27.87000084 28.34600067 27.34600067 27.34600067 28.34600067 27.34600067 27.34600067 27.34600067 27.34600067 27.34600067 27.34600067 27.34600067 27.34600067 28.34600067 28.34600067 29.34600067 29.34600067 29.34600067 30.34600067 30.34600067 30.34600067 31.34600067 30.34600067 -9999 -9999 -9999 -9999 -9999 -9999 -9999
-9999 -9999 -9999 -9999 -9999 -9999 -9999 -9999 -9999 -9999 -9999 -9999 -9999 -9999 -9999 -9999 -9999 719.1630249 714.1630249 705.1630249 700.1630249 694.1630249 680.1630249 671.1630249 671.1630249 655.1630249 650.1630249 645.1630249 638.1630249 634.1630249 628.1630249 619.1630249 610.1630249 599.1630249 588.1630249 576.1630249 570.1630249 570.1630249 561.1630249 556.1630249 551.1630249 550.1630249 549.1630249 552.1630249 558.1630249 563.1630249 578.1630249 -9999 -9999 -9999 -9999 -9999 -9999 -9999 -9999 501.16299438 452.16299438 437.86999512 427.86999512 429.86999512 421.86999512 414.86999512 408.86999512 403.86999512 403.86999512 400.86999512 396.86999512 392.86999512 388.86999512 382.86999512 375.86999512 369.86999512 363.86999512 356.86999512 352.86999512 349.86999512 342.86999512 337.86999512 337.86999512 326.86999512 316.86999512 304.86999512 287.86999512 268.86999512 247.86999512 229.86999512 210.86999512 199.86999512 173.86999512 141.86999512 107.87000275 107.87000275 75.87000275 49.86999893 30.87000084 30.87000084 30.87000084 30.87000084 30.87000084 30.87000084 30.87000084 30.87000084 30.87000084 30.87000084 30.87000084 30.87000084 30.87000084 30.87000084 30.87000084 30.87000084 30.87000084 30.87000084 30.87000084 30.87000084 30.87000084 30.87000084 30.87000084 30.87000084 30.87000084 28.87000084 28.87000084 28.87000084 28.87000084 29.87000084 28.87000084 29.87000084 29.87000084 28.87000084 27.87000084 28.87000084 27.87000084 27.87000084 28.34600067 28.34600067 28.34600067 28.34600067 28.34600067 28.34600067 27.34600067 28.34600067 28.34600067 27.34600067 28.34600067 28.34600067 28.34600067 28.34600067 29.34600067 29.34600067 29.34600067 30.34600067 30.34600067 30.34600067 31.34600067 31.34600067 -9999 -9999 -9999 -9999 -9999 -9999 -9999
-9999 -9999 -9999 -9999 -9999 -9999 -9999 -9999 -9999 -9999 -9999 -9999 -9999 -9999 -9999 -9999 -9999 723.1630249 718.1630249 710.1630249 705.1630249 699.1630249 687.1630249 680.1630249 673.1630249 656.1630249 650.1630249 644.1630249 636.1630249 636.1630249 630.1630249 620.1630249 611.1630249 599.1630249 586.1630249 572.1630249 565.1630249 555.1630249 549.1630249 549.1630249 547.1630249 547.1630249 550.1630249 553.1630249 559.1630249 566.1630249 577.1630249 -9999 -9999 -9999 -9999 -9999 -9999 -9999 -9999 511.16299438 452.16299438 428.86999512 417.86999512 421.86999512 417.86999512 412.86999512 408.86999512 403.86999512 400.86999512 396.86999512 392.86999512 388.86999512 383.86999512 383.86999512 377.86999512 371.86999512 366.86999512 358.86999512 354.86999512 350.86999512 345.86999512 340.86999512 333.86999512 320.86999512 307.86999512 293.86999512 289.86999512 270.86999512 247.86999512 224.86999512 201.86999512 198.86999512 174.86999512 143.86999512 108.87000275 77.87000275 50.86999893 30.87000084 30.87000084 30.87000084 30.87000084 30.87000084 30.87000084 30.87000084 30.87000084 30.87000084 30.87000084 30.87000084 30.87000084 30.87000084 30.87000084 30.87000084 30.87000084 30.87000084 30.87000084 30.87000084 30.87000084 30.87000084 30.87000084 30.87000084 30.87000084 30.87000084 30.87000084 30.87000084 30.87000084 29.87000084 29.87000084 29.87000084 29.87000084 29.87000084 29.87000084 29.87000084 28.87000084 28.87000084 28.87000084 29.34600067 29.34600067 29.34600067 29.34600067 28.34600067 28.34600067 28.34600067 28.34600067 28.34600067 28.34600067 28.34600067 28.34600067 28.34600067 29.34600067 29.34600067 29.34600067 30.34600067 30.34600067 30.34600067 30.34600067 31.34600067 31.34600067 31.34600067 -9999 -9999 -9999 -9999 -9999 -9999 -9999
-9999 -9999 -9999 -9999 -9999 -9999 -9999 -9999 -9999 -9999 -9999 -9999 -9999 -9999 -9999 -9999 -9999 723.1630249 717.1630249 708.1630249 708.1630249 704.1630249 694.1630249 690.1630249 683.1630249 665.1630249 657.1630249 649.1630249 639.1630249 632.1630249 622.1630249 611.1630249 599.1630249 599.1630249 585.1630249 569.1630249 560.1630249 550.1630249 543.1630249 544.1630249 540.1630249 539.1630249 550.1630249 556.1630249 564.1630249 578.1630249 590.1630249 592.1630249 614.1630249 -9999 -9999 -9999 -9999 -9999 -9999 456.16299438 424.86999512 409.86999512 405.86999512 411.86999512 411.86999512 409.86999512 406.86999512 402.86999512 400.86999512 396.86999512 393.86999512 388.86999512 384.86999512 379.86999512 373.86999512 368.86999512 363.86999512 356.86999512 356.86999512 352.86999512 347.86999512 343.86999512 337.86999512 324.86999512 312.86999512 293.86999512 276.86999512 257.86999512 229.86999512 210.86999512 198.86999512 193.86999512 174.86999512 146.86999512 111.87000275 80.87000275 54.86999893 30.87000084 30.87000084 30.87000084 30.87000084 30.87000084 30.87000084 30.87000084 30.87000084 30.87000084 30.87000084 30.87000084 30.87000084 30.87000084 30.87000084 30.87000084 30.87000084 30.87000084 30.87000084 30.87000084 30.87000084 30.87000084 30.87000084 30.87000084 30.87000084 30.87000084 30.87000084 30.87000084 30.87000084 30.87000084 30.87000084 30.87000084 30.87000084 30.87000084 30.87000084 29.87000084 29.87000084 29.87000084 28.87000084 29.34600067 29.34600067 29.34600067 29.34600067 29.34600067 29.34600067 29.34600067 29.34600067 29.34600067 29.34600067 28.34600067 29.34600067 29.34600067 29.34600067 29.34600067 30.34600067 30.34600067 30.34600067 30.34600067 31.34600067 31.34600067 32.34600067 32.34600067 32.34600067 33.34600067 -9999 -9999 -9999 -9999 -9999
